ply
format ascii 1.0
element vertex 1272
property float x
property float y
property float z
property uchar red
property uchar green
property uchar blue
end_header
0.550873 0.616731 -0.023597 0 0 255
-0.562962 -0.450295 -0.031316 255 0 0
0.532406 0.780936 0.269950 153 0 76
-0.308549 0.134586 0.269950 0 127 127
-0.225400 0.005794 0.175875 153 0 76
0.494652 -0.782807 0.144743 127 127 0
0.568553 -0.065162 -0.174598 0 0 255
0.550873 -0.218559 -0.247693 0 0 255
-0.276393 0.665667 -0.273708 76 0 153
0.568553 0.751337 0.231208 0 0 255
-0.021835 0.376521 -0.166309 204 51 127
0.121805 0.400094 -0.138643 204 51 127
0.087353 0.286779 0.269950 153 0 76
-0.290474 0.386009 0.269950 0 127 127
0.568553 -0.350358 -0.187258 0 0 255
-0.276330 -0.318322 -0.267814 0 255 0
0.090098 -0.782807 0.192113 127 127 0
0.520060 0.333892 -0.273708 0 255 0
-0.370866 0.161032 -0.267814 0 255 0
0.568553 -0.584558 0.044189 0 0 255
-0.062936 0.155750 0.269950 0 127 127
-0.405000 0.717478 -0.291388 76 0 153
-0.311503 -0.782807 0.013154 127 127 0
0.010937 0.376521 -0.058019 204 51 127
0.227205 0.773768 0.080624 127 0 127
0.398922 0.773768 0.172446 127 0 127
-0.022218 0.773768 -0.211466 127 0 127
0.470127 -0.499935 0.252270 153 0 76
0.496397 0.673411 -0.267814 0 255 0
0.134904 0.376521 0.074203 204 51 127
0.422674 -0.806381 -0.002281 127 127 0
-0.545282 -0.035180 0.061474 255 0 0
0.514896 -0.782807 -0.134143 127 127 0
0.550873 -0.665505 0.171266 0 0 255
-0.545282 0.307496 -0.010635 255 0 0
0.492733 -0.412080 0.016086 76 0 153
-0.545282 -0.048220 0.154852 255 0 0
0.119439 -0.762619 -0.291388 153 0 76
0.541469 0.005794 -0.206960 153 0 76
-0.462547 -0.217772 0.269950 0 127 127
0.035462 -0.795513 -0.291388 127 127 0
-0.562962 0.417995 0.054235 255 0 0
-0.562962 -0.241483 0.228108 255 0 0
0.075133 -0.388507 -0.018803 76 0 153
-0.342260 -0.285453 0.269950 0 127 127
-0.336083 0.773768 -0.093807 127 0 127
-0.419102 0.773768 0.136656 127 0 127
-0.545282 0.453932 0.067941 255 0 0
-0.195608 -0.782807 0.122039 127 127 0
-0.502613 -0.388507 -0.219114 76 0 153
0.075088 -0.806381 -0.247889 127 127 0
0.524294 -0.412080 -0.080188 76 0 153
0.469228 0.586810 0.269950 153 0 76
-0.192563 -0.806381 -0.088231 127 127 0
-0.406527 0.400094 -0.131443 204 51 127
0.343241 -0.782807 0.063491 127 127 0
-0.562962 0.337427 0.149564 255 0 0
0.100855 -0.017780 0.021534 153 0 76
0.568553 -0.485079 -0.290889 0 0 255
0.329615 0.766885 0.252270 153 0 76
0.430923 -0.782807 -0.126260 127 127 0
0.185497 -0.280530 0.269950 153 0 76
0.307836 0.496208 0.269950 153 0 76
-0.311414 -0.782807 -0.196264 127 127 0
-0.344532 0.797341 -0.282885 127 0 127
-0.562962 -0.755110 0.157024 255 0 0
0.127386 -0.782807 0.045508 127 127 0
0.377363 -0.017011 0.252270 153 0 76
-0.545282 -0.048824 -0.202823 255 0 0
0.527462 0.773768 -0.221382 127 0 127
-0.203567 -0.782807 -0.150747 127 127 0
-0.442942 -0.388507 -0.098494 76 0 153
0.404312 0.005794 0.156220 153 0 76
0.336864 0.005794 -0.094607 153 0 76
-0.187631 0.683785 0.269950 0 127 127
0.517113 0.773768 0.051614 127 0 127
0.305912 0.400094 0.138599 204 51 127
-0.493137 -0.806381 -0.153336 127 127 0
0.198000 0.519625 0.269950 153 0 76
-0.249036 0.035390 0.269950 0 127 127
0.107056 0.773768 0.130772 127 0 127
0.265225 -0.405254 0.269950 153 0 76
-0.130966 -0.363271 -0.273708 0 255 0
0.568553 -0.498381 -0.125070 0 0 255
-0.532411 0.773768 0.188872 127 0 127
0.273912 -0.412080 -0.155907 76 0 153
-0.545282 -0.640836 0.211322 255 0 0
0.272775 -0.762811 -0.291388 153 0 76
0.266595 0.143224 0.269950 153 0 76
-0.545282 0.169597 0.185705 255 0 0
-0.545282 0.028962 -0.094427 255 0 0
-0.168409 0.764032 -0.291388 76 0 153
0.005304 -0.782807 0.228394 127 127 0
0.325191 -0.626543 -0.267814 0 255 0
0.542173 -0.209078 0.269950 153 0 76
0.082906 0.743164 -0.273708 76 0 153
0.568553 -0.760014 -0.089527 0 0 255
0.029989 -0.557197 0.269950 153 0 76
-0.037140 0.114417 -0.267814 0 255 0
-0.180342 0.703942 -0.273708 76 0 153
-0.562962 -0.169901 -0.245277 255 0 0
-0.562962 0.502054 -0.062065 255 0 0
0.271699 0.374055 -0.273708 0 255 0
-0.478501 -0.017780 0.087443 153 0 76
-0.493255 -0.388507 0.002987 76 0 153
-0.562962 0.173482 -0.071989 255 0 0
0.339831 0.376521 -0.102353 204 51 127
0.086545 0.622307 0.269950 153 0 76
0.568553 -0.457745 -0.243715 0 0 255
-0.309438 0.328098 -0.267814 0 255 0
0.564345 -0.135309 0.252270 153 0 76
-0.441955 0.005794 -0.197989 153 0 76
-0.562962 -0.538375 -0.290102 255 0 0
0.372707 0.400094 0.130340 204 51 127
0.464655 -0.349788 -0.273708 0 255 0
-0.260445 -0.388507 0.110178 76 0 153
-0.545282 0.102116 0.217173 255 0 0
-0.545282 0.576584 -0.202522 255 0 0
-0.322260 0.005794 0.094411 153 0 76
-0.171350 -0.782807 0.208669 127 127 0
0.253165 -0.339623 0.269950 153 0 76
-0.206410 0.545452 -0.267814 0 255 0
-0.111403 0.253508 -0.267814 0 255 0
0.496642 0.376521 -0.235701 204 51 127
0.279963 0.653640 -0.273708 0 255 0
0.550873 0.138151 -0.222506 0 0 255
-0.558457 0.797341 -0.020878 255 0 0
0.568553 -0.378006 0.048956 0 0 255
-0.213586 -0.548334 0.252270 0 127 127
0.567079 -0.055818 0.253952 153 0 76
0.398095 -0.388507 0.233697 76 0 153
0.271379 0.732433 0.269950 153 0 76
0.369916 0.797341 0.071714 127 0 127
0.387037 -0.098403 -0.267814 0 255 0
0.234325 -0.388507 0.055897 76 0 153
0.113025 0.376521 0.002095 204 51 127
-0.476951 -0.388507 -0.263391 76 0 153
0.237356 0.400094 -0.166691 204 51 127
-0.289760 0.184862 0.269950 0 127 127
-0.546166 0.636204 -0.291388 255 0 0
-0.477229 0.485880 -0.267814 0 255 0
0.300111 -0.017780 -0.018015 153 0 76
0.200003 0.683894 -0.291388 76 0 153
0.264452 -0.600520 0.252270 153 0 76
0.368483 0.044202 0.252270 153 0 76
0.001322 -0.129052 0.266381 0 127 127
-0.545282 -0.332832 0.121092 255 0 0
-0.550844 -0.764473 0.252270 0 127 127
0.439535 -0.276016 0.269950 153 0 76
0.142527 -0.607695 0.269950 153 0 76
-0.169701 -0.606758 0.269950 0 127 127
0.245565 -0.806381 -0.242657 127 127 0
0.253539 0.376521 -0.004192 204 51 127
-0.037752 -0.720192 0.252270 0 127 127
0.392003 -0.670874 -0.267814 0 255 0
-0.416981 -0.368052 -0.267814 0 255 0
0.400908 0.005794 0.111456 153 0 76
0.378244 0.773768 -0.199492 127 0 127
0.568553 0.714167 -0.164016 0 0 255
0.070014 -0.630034 0.252270 153 0 76
-0.319102 -0.017780 0.051453 153 0 76
-0.211202 -0.017780 -0.042488 153 0 76
0.021097 0.400094 0.059440 204 51 127
-0.135566 0.005794 -0.237669 153 0 76
0.131201 -0.121586 0.252270 153 0 76
-0.562962 -0.293669 -0.035442 255 0 0
0.303993 -0.804737 -0.291388 127 127 0
0.374827 -0.806381 -0.253519 127 127 0
-0.562962 0.302030 0.217152 255 0 0
0.229321 -0.421641 0.252270 153 0 76
-0.504955 0.008460 -0.291388 153 76 0
0.550873 0.068896 -0.176042 0 0 255
-0.247183 -0.388507 -0.201092 76 0 153
0.224004 -0.806381 -0.177606 127 127 0
0.197134 0.797341 -0.231145 127 0 127
-0.405676 -0.123306 -0.267814 0 255 0
0.256539 0.293860 0.269950 153 0 76
0.525237 -0.546601 0.269950 153 0 76
0.148864 0.017180 0.269950 153 0 76
0.259127 0.797341 -0.126593 127 0 127
0.438550 0.436864 -0.267814 0 255 0
-0.275488 0.773768 0.140047 127 0 127
-0.224020 -0.180332 0.252270 0 127 127
-0.274681 0.400094 -0.188075 204 51 127
0.463574 -0.130852 -0.273708 0 255 0
-0.148264 -0.648397 -0.267814 0 255 0
-0.545282 -0.648592 -0.086991 255 0 0
0.024526 -0.388507 -0.173209 76 0 153
-0.118955 0.005794 -0.174805 153 0 76
0.318821 -0.211179 -0.273708 0 255 0
0.393688 -0.388507 -0.243286 76 0 153
-0.145860 -0.412080 0.014384 76 0 153
-0.545282 0.480230 0.232030 255 0 0
-0.020373 -0.782807 -0.073850 127 127 0
-0.562962 -0.321990 -0.105615 255 0 0
0.032925 0.313078 0.269950 153 0 76
-0.244446 -0.523731 0.269950 0 127 127
0.405014 0.797341 0.140655 127 0 127
-0.202936 -0.412080 0.188199 76 0 153
0.024794 0.005794 -0.003334 153 0 76
0.047606 -0.388507 0.137953 76 0 153
0.314778 -0.643080 0.269950 153 0 76
0.398287 0.393308 0.244903 204 51 127
-0.228109 0.005794 -0.150537 153 0 76
-0.103652 0.797341 0.043462 127 0 127
0.423013 -0.782807 0.078052 127 127 0
-0.024739 -0.412080 0.177823 76 0 153
0.550873 -0.519984 0.164858 0 0 255
0.113344 -0.412080 0.118340 76 0 153
-0.442857 0.243234 0.269950 0 127 127
-0.149119 -0.484811 0.269950 0 127 127
0.111254 -0.233439 0.269950 153 0 76
-0.428277 0.400094 0.077679 204 51 127
-0.135499 0.773768 0.162943 127 0 127
0.053879 0.773768 0.127428 127 0 127
0.122852 -0.500498 0.269950 153 0 76
0.121046 0.797341 -0.008831 127 0 127
0.201466 -0.456527 -0.273708 0 255 0
0.449207 -0.325265 0.252270 153 0 76
-0.029654 0.773768 0.072678 127 0 127
-0.226144 0.758672 0.252270 0 127 127
-0.176481 0.434333 0.269950 0 127 127
0.014426 0.376521 -0.135083 204 51 127
0.285103 0.076706 -0.273708 0 255 0
-0.321257 -0.047492 -0.267814 0 255 0
0.343213 0.540129 0.269950 153 0 76
0.396642 0.400094 -0.052332 204 51 127
0.212033 -0.571244 0.252270 153 0 76
-0.282766 0.797341 -0.249173 127 0 127
-0.209073 -0.782807 -0.260848 127 127 0
0.190719 -0.202168 0.252270 153 0 76
-0.519765 0.309301 0.269950 0 127 127
-0.194101 0.376521 0.025260 204 51 127
0.038090 0.797341 0.067434 127 0 127
-0.238443 0.083350 0.269950 0 127 127
0.293307 -0.806381 -0.141714 127 127 0
0.568553 -0.721658 -0.029093 0 0 255
0.505893 0.005794 -0.028519 153 0 76
-0.562962 0.548546 0.105641 255 0 0
0.298814 -0.017780 -0.208816 153 0 76
-0.545282 0.701433 0.207607 255 0 0
0.001322 -0.387688 0.264819 0 127 127
-0.222162 0.376521 0.091703 204 51 127
0.014950 0.400094 -0.209848 204 51 127
0.305855 -0.806381 0.117756 127 127 0
0.550873 -0.150654 0.158521 0 0 255
0.211231 0.419982 -0.273708 0 255 0
0.537453 -0.496252 0.252270 153 0 76
-0.295306 0.575037 0.252270 0 127 127
0.091496 0.681488 -0.291388 76 0 153
0.568553 0.596008 -0.121247 0 0 255
-0.133842 -0.782807 0.057822 127 127 0
-0.057626 -0.602713 0.269950 0 127 127
-0.344014 -0.782807 0.182927 127 127 0
0.336720 0.797341 0.222703 127 0 127
-0.430624 -0.686096 -0.267814 0 255 0
0.550873 -0.085000 0.058785 0 0 255
0.179592 0.376521 0.091836 204 51 127
0.060540 -0.588269 0.269950 153 0 76
-0.018251 0.488188 -0.273708 0 255 0
-0.286132 0.005794 0.122492 153 0 76
-0.445575 -0.806381 -0.256868 127 127 0
-0.389581 0.454711 0.252270 0 127 127
-0.349604 0.376521 0.211219 204 51 127
0.550873 0.453743 -0.200231 0 0 255
-0.170553 0.376521 0.222464 204 51 127
-0.223588 0.347465 -0.267814 0 255 0
0.218734 0.376521 0.144357 204 51 127
0.568553 0.654400 0.031678 0 0 255
0.568553 0.316436 -0.215279 0 0 255
0.550873 -0.794797 -0.076736 127 127 0
-0.545282 0.422588 0.132603 255 0 0
0.265835 0.161304 -0.267814 0 255 0
-0.204777 0.594111 -0.267814 0 255 0
-0.294251 0.797341 0.178434 127 0 127
0.568553 0.430830 0.120127 0 0 255
-0.413740 -0.806381 0.069733 127 127 0
0.198576 0.005794 -0.033039 153 0 76
-0.188302 -0.019589 -0.291388 153 76 0
-0.050045 0.797341 0.212077 127 0 127
-0.297516 -0.017780 -0.190051 153 0 76
0.299677 -0.748714 0.252270 153 0 76
0.550873 0.190527 -0.258586 0 0 255
0.504988 -0.199032 -0.273708 0 255 0
0.309748 -0.469787 -0.273708 0 255 0
-0.529481 0.362246 0.252270 0 127 127
-0.209849 -0.033883 0.252270 0 127 127
-0.545282 0.615133 -0.251209 255 0 0
0.082337 -0.388507 -0.070173 76 0 153
-0.545282 -0.336443 -0.239278 255 0 0
0.132916 0.302063 0.252270 153 0 76
-0.336672 -0.017780 0.003264 153 0 76
0.464474 -0.143106 0.269950 153 0 76
0.568553 -0.446191 0.233306 0 0 255
0.477102 0.797341 0.173022 127 0 127
-0.111901 -0.388507 -0.089266 76 0 153
-0.256419 -0.412080 -0.252357 76 0 153
-0.244455 -0.366284 0.269950 0 127 127
-0.030693 0.376521 -0.096089 204 51 127
-0.473432 -0.653294 0.269950 0 127 127
0.340995 0.376521 0.129112 204 51 127
0.188096 0.376521 -0.087310 204 51 127
0.568553 -0.430699 0.094041 0 0 255
-0.135915 0.126728 -0.273708 0 255 0
0.289210 0.212903 -0.273708 0 255 0
-0.040415 -0.806381 0.083326 127 127 0
-0.562962 -0.168588 0.088125 255 0 0
-0.011974 -0.388507 0.030928 76 0 153
-0.212162 0.797341 -0.260239 127 0 127
-0.545282 0.712206 -0.131889 255 0 0
0.081002 0.376521 0.122844 204 51 127
0.550873 -0.294451 0.033577 0 0 255
-0.244322 -0.412080 -0.100190 76 0 153
0.528796 -0.680799 -0.267814 0 255 0
0.290427 -0.017780 0.191530 153 0 76
-0.109117 0.376521 -0.003832 204 51 127
0.022382 0.054050 0.269950 153 0 76
0.013228 0.372224 0.269950 153 0 76
0.217217 -0.412080 -0.217499 76 0 153
0.568553 0.645944 -0.055506 0 0 255
0.568553 -0.487310 -0.174692 0 0 255
-0.369795 -0.216988 -0.267814 0 255 0
-0.116619 0.773768 -0.040318 127 0 127
-0.245341 -0.412080 0.171052 76 0 153
0.225224 0.453934 0.269950 153 0 76
-0.137436 0.152580 0.252270 0 127 127
-0.545282 0.435954 -0.094419 255 0 0
0.116949 0.178572 -0.273708 0 255 0
-0.319876 0.773768 0.236629 127 0 127
0.075455 -0.017780 -0.010419 153 0 76
0.061929 -0.159418 -0.267814 0 255 0
-0.366247 -0.388507 0.013976 76 0 153
0.303364 -0.048420 -0.273708 153 76 0
-0.495404 -0.010053 0.269950 0 127 127
0.550873 0.374254 -0.186069 0 0 255
0.332111 -0.806381 0.227907 127 127 0
0.359342 0.005794 0.167870 153 0 76
0.083021 0.316878 -0.273708 0 255 0
0.107325 -0.667748 -0.291388 153 0 76
-0.164525 0.400094 -0.120239 204 51 127
0.345778 0.400094 -0.247328 204 51 127
-0.088906 0.728716 0.269950 0 127 127
0.156418 -0.691465 0.252270 153 0 76
-0.467739 -0.782807 0.193147 127 127 0
-0.545282 -0.153443 0.163163 255 0 0
0.568553 -0.433836 -0.088884 0 0 255
0.431891 0.376521 0.161326 204 51 127
-0.545282 0.681117 -0.228098 255 0 0
-0.545282 -0.733205 -0.093795 255 0 0
0.373012 0.550150 -0.267814 0 255 0
-0.021879 -0.806381 0.260349 0 127 127
0.150016 0.587401 0.269950 153 0 76
-0.241838 0.005794 0.049367 153 0 76
0.207484 0.130577 0.252270 153 0 76
-0.148963 0.005794 0.162684 153 0 76
0.427351 -0.458481 0.269950 153 0 76
0.078622 -0.388507 0.111131 76 0 153
-0.306343 -0.412080 0.119297 76 0 153
-0.444060 -0.437373 -0.267814 0 255 0
-0.008148 0.005794 0.159112 153 0 76
0.568553 -0.003177 0.246276 0 0 255
0.453409 -0.017780 0.156935 153 0 76
-0.508943 -0.505707 0.269950 0 127 127
0.426974 -0.017780 -0.152528 153 0 76
0.329606 -0.782807 -0.258453 127 127 0
0.017761 0.451010 -0.267814 0 255 0
0.512532 -0.055907 -0.291388 153 76 0
-0.545282 -0.727585 0.082249 255 0 0
0.363868 -0.503899 0.269950 153 0 76
0.255279 -0.750275 0.252270 153 0 76
-0.270140 0.796147 0.250797 127 0 127
0.193230 -0.516300 -0.273708 0 255 0
-0.151405 -0.541749 0.269950 0 127 127
-0.418232 -0.094852 0.269950 0 127 127
-0.562962 0.754094 -0.130623 255 0 0
0.550873 -0.634459 -0.066393 0 0 255
-0.562962 -0.660953 0.158756 255 0 0
0.482773 -0.696073 0.269950 153 0 76
0.449598 -0.806381 -0.194871 127 127 0
-0.082785 -0.404547 -0.267814 76 0 153
-0.216368 0.005794 -0.227001 153 0 76
0.307409 0.376521 -0.054087 204 51 127
-0.327185 0.441449 0.269950 0 127 127
0.120266 0.773768 0.223618 127 0 127
-0.130388 -0.269710 -0.273708 0 255 0
0.296687 0.133235 -0.273708 0 255 0
0.143207 -0.075922 0.269950 153 0 76
0.135966 -0.283230 -0.267814 0 255 0
0.568553 -0.029577 0.192101 0 0 255
0.154678 0.376521 -0.033571 204 51 127
-0.562962 -0.568546 -0.263515 255 0 0
-0.411317 0.797341 -0.244588 127 0 127
0.221175 0.194384 0.252270 153 0 76
0.049625 -0.461423 0.269950 153 0 76
-0.082975 0.005794 -0.063479 153 0 76
-0.048729 0.221891 0.301726 76 153 0
-0.437218 0.568603 0.252270 0 127 127
0.077613 0.400094 -0.056229 204 51 127
0.550873 0.106022 -0.163878 0 0 255
-0.243318 0.720304 0.252270 0 127 127
0.030096 -0.412080 0.203275 76 0 153
-0.046800 0.797341 0.158904 127 0 127
-0.193829 0.193697 0.269950 0 127 127
-0.387950 0.376521 -0.076668 204 51 127
0.568553 -0.342747 -0.143692 0 0 255
-0.438603 -0.806381 0.016576 127 127 0
0.232304 0.090916 -0.273708 0 255 0
-0.026153 0.511664 0.269950 0 127 127
-0.296530 0.376521 0.075403 204 51 127
0.419469 -0.806381 -0.250907 127 127 0
0.431517 -0.388661 0.269950 153 0 76
-0.326664 -0.017780 0.194040 153 0 76
-0.029665 -0.359026 -0.273708 0 255 0
-0.214573 0.773768 -0.146783 127 0 127
-0.483190 0.797341 0.176643 127 0 127
-0.355935 0.179044 0.269950 0 127 127
0.276923 -0.388507 0.198719 76 0 153
0.277027 0.652684 0.252270 153 0 76
0.352399 0.075381 0.269950 153 0 76
-0.161584 0.376521 -0.074608 204 51 127
0.550873 -0.510980 -0.055591 0 0 255
-0.261802 -0.388507 -0.034142 76 0 153
-0.292116 -0.782807 0.228849 127 127 0
-0.503455 0.376521 0.172662 204 51 127
-0.545282 0.746510 -0.066629 255 0 0
-0.538133 0.766074 -0.273708 0 255 0
0.411981 -0.794418 0.269950 153 0 76
-0.359623 0.376521 -0.004047 204 51 127
0.550873 -0.118133 -0.256544 0 0 255
-0.255525 -0.782807 0.010449 127 127 0
-0.319058 -0.527481 -0.267814 0 255 0
-0.230609 -0.087346 -0.273708 0 255 0
0.550873 -0.708847 0.082179 0 0 255
0.130898 -0.014172 -0.267814 0 255 0
0.328391 0.773768 0.169333 127 0 127
0.125107 0.280048 -0.273708 0 255 0
-0.092871 -0.412080 -0.150566 76 0 153
-0.173371 -0.091799 0.269950 0 127 127
0.339428 0.606076 0.252270 153 0 76
0.082437 0.376521 0.058588 204 51 127
-0.545282 0.432832 0.211665 255 0 0
0.074451 0.400094 0.001880 204 51 127
-0.360441 0.669180 -0.267814 0 255 0
-0.562962 -0.596450 0.051006 255 0 0
-0.377289 0.005794 0.118913 153 0 76
-0.532482 -0.017780 -0.134796 153 0 76
0.380273 -0.606379 -0.267814 0 255 0
-0.423749 -0.412080 0.003401 76 0 153
0.225498 0.797341 -0.070994 127 0 127
0.084536 0.376521 -0.221577 204 51 127
-0.155938 -0.112458 -0.273708 0 255 0
0.550873 0.416363 0.052674 0 0 255
-0.290829 0.009884 -0.273708 153 76 0
-0.000476 -0.782807 0.150950 127 127 0
0.201851 0.797341 -0.156414 127 0 127
0.515639 0.051348 -0.291388 153 76 0
0.204440 -0.454628 0.269950 153 0 76
-0.152874 0.376521 0.157751 204 51 127
-0.314014 0.216551 -0.267814 0 255 0
0.568553 -0.640624 0.004964 0 0 255
-0.294554 -0.412080 0.034602 76 0 153
0.076023 0.005794 0.070416 153 0 76
-0.112575 0.382673 0.269950 0 127 127
0.195447 -0.110684 -0.273708 0 255 0
-0.506309 0.400094 -0.192665 204 51 127
-0.042264 0.376521 0.207637 204 51 127
0.232469 -0.646246 -0.273708 0 255 0
0.425569 -0.656667 0.252270 153 0 76
0.476817 0.676491 0.269950 153 0 76
0.161719 0.400094 0.231346 204 51 127
0.476317 0.773768 0.235685 127 0 127
0.126787 0.376521 0.212350 204 51 127
0.354606 -0.201440 0.269950 153 0 76
0.124263 0.400094 0.133360 204 51 127
-0.481143 0.432099 0.269950 0 127 127
-0.186796 0.005794 0.009733 153 0 76
-0.545282 -0.015070 0.118435 153 0 76
-0.441599 0.205436 -0.267814 0 255 0
-0.058014 0.466655 -0.267814 0 255 0
0.568553 -0.182606 -0.180955 0 0 255
0.157261 0.005794 0.187906 153 0 76
0.209411 -0.125148 0.269950 153 0 76
0.065140 -0.114781 -0.267814 0 255 0
-0.211817 0.456576 -0.273708 0 255 0
-0.476974 0.797341 -0.217661 127 0 127
-0.295936 0.376521 0.154001 204 51 127
-0.063031 0.693812 0.269950 0 127 127
-0.545282 0.200560 0.219858 255 0 0
0.258819 0.333176 -0.273708 0 255 0
-0.493241 -0.412080 -0.168397 76 0 153
0.550873 -0.288607 0.143958 0 0 255
0.400641 -0.782807 0.183120 127 127 0
-0.545282 0.540735 -0.020490 255 0 0
-0.545282 -0.804422 -0.084248 255 0 0
-0.545282 0.348685 -0.037947 255 0 0
-0.030232 0.376521 0.087738 204 51 127
-0.034723 -0.441062 -0.273708 0 255 0
0.428229 0.768929 -0.267814 0 255 0
0.445154 0.509888 0.252270 153 0 76
0.319917 -0.017780 0.232281 153 0 76
0.202708 -0.669831 -0.291388 153 0 76
-0.446218 0.689174 -0.267814 0 255 0
0.322914 -0.388507 -0.201487 76 0 153
-0.126472 0.005794 0.010105 153 0 76
0.550873 -0.742524 -0.235504 0 0 255
0.186431 0.339074 0.252270 153 0 76
0.526141 0.773768 0.129530 127 0 127
-0.042315 -0.017780 -0.145269 153 0 76
0.207320 -0.799614 0.269950 153 0 76
0.247610 -0.017780 -0.093697 153 0 76
0.508072 -0.017780 0.192129 153 0 76
0.056908 -0.388507 0.047630 76 0 153
-0.295942 -0.412080 0.186344 76 0 153
-0.307914 0.005794 0.231244 153 0 76
-0.057070 0.061036 0.252270 0 127 127
-0.562962 -0.023149 -0.078417 255 0 0
-0.270832 -0.017780 -0.139948 153 0 76
-0.097240 0.792349 -0.291388 127 0 127
-0.096953 -0.537004 0.252270 0 127 127
-0.532040 0.773768 0.038141 127 0 127
-0.342838 0.005794 -0.159415 153 0 76
0.550873 0.284403 0.069907 0 0 255
-0.261298 -0.782807 -0.045102 127 127 0
0.534981 0.019387 0.252270 153 0 76
-0.242099 0.547476 0.252270 0 127 127
0.568553 0.104616 -0.022065 0 0 255
-0.267663 -0.800231 -0.291388 127 127 0
0.189589 0.376521 0.018903 204 51 127
-0.109273 -0.388507 -0.190771 76 0 153
-0.404726 -0.610316 -0.267814 0 255 0
-0.205197 -0.412080 0.062836 76 0 153
-0.522016 -0.017780 -0.215428 153 0 76
-0.374494 0.374019 -0.267814 0 255 0
0.340471 0.005794 -0.243793 153 0 76
-0.562962 0.020114 0.170676 255 0 0
0.354778 0.400094 0.050824 204 51 127
0.238931 0.400094 -0.037456 204 51 127
-0.562962 0.791217 0.072870 255 0 0
0.185133 0.188029 0.269950 153 0 76
0.139638 0.376521 -0.075483 204 51 127
0.464144 -0.097842 0.269950 153 0 76
-0.414682 0.400094 -0.252105 204 51 127
-0.368387 0.797341 0.132960 127 0 127
-0.288169 0.706055 -0.267814 0 255 0
0.070666 -0.066070 -0.267814 0 255 0
0.484374 0.400094 -0.002509 204 51 127
-0.537187 0.376521 0.018150 204 51 127
0.534999 -0.782807 -0.209108 127 127 0
0.249796 -0.806381 0.030054 127 127 0
-0.545282 -0.363724 -0.035000 255 0 0
-0.562962 0.686425 -0.092229 255 0 0
-0.562962 -0.250401 -0.160088 255 0 0
0.427987 -0.017780 0.199723 153 0 76
-0.513046 -0.512950 -0.267814 0 255 0
0.168118 -0.782807 0.189269 127 127 0
-0.555596 -0.401018 0.269950 0 127 127
-0.405460 -0.388507 -0.040035 76 0 153
0.357468 -0.412080 0.021993 76 0 153
-0.307989 0.376521 -0.214340 204 51 127
-0.422265 0.773768 -0.002244 127 0 127
-0.003610 0.341496 -0.267814 0 255 0
0.419904 0.797341 -0.131700 127 0 127
-0.114389 0.786633 0.250797 127 0 127
-0.161777 0.376521 -0.185287 204 51 127
-0.145330 -0.782807 -0.239061 127 127 0
0.375833 0.773768 -0.260121 127 0 127
-0.160129 -0.769287 0.252270 0 127 127
-0.478301 0.718453 0.269950 0 127 127
0.529311 0.376521 -0.071869 204 51 127
-0.025894 0.168669 0.269950 0 127 127
-0.117317 0.343544 -0.267814 0 255 0
-0.476634 -0.806381 -0.040811 127 127 0
0.365322 -0.782807 -0.208302 127 127 0
0.290035 -0.806381 -0.230634 127 127 0
0.512259 -0.017780 0.012505 153 0 76
-0.420949 0.629713 -0.267814 0 255 0
-0.545282 -0.464254 0.178573 255 0 0
0.256865 0.797341 -0.243538 127 0 127
-0.049115 -0.364796 0.269950 0 127 127
-0.179973 -0.412080 -0.159046 76 0 153
-0.539866 0.408820 0.269950 0 127 127
0.115023 0.005794 -0.056600 153 0 76
-0.462076 -0.218174 -0.267814 0 255 0
-0.562962 -0.375459 -0.157878 255 0 0
-0.379432 0.276749 -0.267814 0 255 0
0.268638 0.187274 0.269950 153 0 76
-0.364588 0.587972 0.269950 0 127 127
0.054402 0.364269 0.301666 76 0 153
-0.125687 0.642187 0.252270 0 127 127
-0.265989 0.400094 0.223145 204 51 127
-0.503524 -0.806381 -0.009531 127 127 0
-0.444072 -0.806381 -0.196249 127 127 0
0.270967 0.400094 -0.234458 204 51 127
-0.407940 0.005794 0.238680 153 0 76
0.550873 0.526542 -0.025709 0 0 255
0.445626 -0.210465 0.269950 153 0 76
0.098464 -0.388507 0.043437 76 0 153
-0.462735 -0.142052 -0.273708 0 255 0
0.560978 0.329102 -0.291388 0 0 255
0.434610 -0.412080 -0.201864 76 0 153
-0.158568 0.005794 -0.102710 153 0 76
-0.218565 -0.391137 -0.267814 76 0 153
0.384238 0.712553 -0.267814 0 255 0
-0.562962 0.548106 -0.053932 255 0 0
0.101862 -0.057949 0.252270 153 0 76
-0.545282 -0.541130 -0.009059 255 0 0
0.521262 -0.373646 0.252270 153 0 76
0.568553 -0.791987 -0.283043 0 0 255
-0.355907 0.376521 0.134502 204 51 127
0.568553 0.530614 0.014943 0 0 255
0.550873 -0.127002 -0.030280 0 0 255
-0.148882 -0.173724 -0.267814 0 255 0
-0.081045 -0.137324 0.252270 0 127 127
0.027830 0.005794 0.034395 153 0 76
-0.332881 -0.782807 0.073719 127 127 0
0.397255 0.253529 0.252270 153 0 76
0.416386 -0.642538 -0.273708 0 255 0
-0.545282 0.695262 0.043227 255 0 0
0.285728 0.576020 -0.267814 0 255 0
-0.562962 -0.514362 0.248523 255 0 0
0.568553 -0.605164 -0.082696 0 0 255
-0.075566 0.797341 -0.089417 127 0 127
-0.562962 -0.794927 0.102826 255 0 0
0.345483 0.590765 -0.273708 0 255 0
-0.164938 -0.268274 0.252270 0 127 127
-0.386424 -0.806381 0.191565 127 127 0
0.296936 0.005794 0.037012 153 0 76
-0.557122 -0.629985 -0.291388 255 0 0
-0.373922 0.376521 0.176131 204 51 127
0.051481 0.573688 0.252270 153 0 76
0.416002 -0.707107 -0.273708 153 0 76
-0.562962 0.633318 -0.121209 255 0 0
-0.517644 0.137886 0.269950 0 127 127
0.079449 -0.388507 -0.121798 76 0 153
-0.562962 0.131149 -0.282916 255 0 0
0.568553 0.703117 0.120042 0 0 255
-0.315015 -0.548911 0.269950 0 127 127
0.538283 -0.433531 0.252270 153 0 76
0.184252 -0.388507 0.227863 76 0 153
-0.527595 0.601547 0.269950 0 127 127
-0.562962 -0.232037 -0.046261 255 0 0
-0.545282 0.475314 -0.092405 255 0 0
0.384871 0.681003 0.269950 153 0 76
-0.380166 -0.349556 -0.267814 0 255 0
0.461649 0.797341 -0.076504 127 0 127
0.312595 -0.017780 0.137541 153 0 76
0.568553 0.586909 0.096222 0 0 255
-0.393784 -0.782807 -0.104818 127 127 0
-0.562962 -0.459532 0.059697 255 0 0
-0.018846 -0.009190 0.244903 153 0 76
0.398693 -0.412080 0.114008 76 0 153
0.246560 -0.082074 0.269950 153 0 76
0.210159 -0.806381 0.206315 127 127 0
0.048150 -0.782987 0.252270 153 0 76
-0.537041 -0.388507 0.211276 76 0 153
-0.400626 0.797341 0.187204 127 0 127
0.090550 0.582783 0.252270 153 0 76
0.332516 -0.412080 0.117716 76 0 153
-0.078578 -0.431377 0.252270 0 127 127
-0.562962 0.112066 -0.089110 255 0 0
-0.178969 0.005794 -0.208809 153 0 76
0.015933 0.797341 -0.039022 127 0 127
0.197034 0.773768 0.211778 127 0 127
0.013917 0.400094 0.169744 204 51 127
0.461406 -0.782807 -0.077987 127 127 0
0.227036 0.613322 0.269950 153 0 76
0.149709 -0.017780 -0.102360 153 0 76
0.155310 0.248133 0.252270 153 0 76
-0.245208 -0.284980 -0.267814 0 255 0
-0.545282 -0.377986 0.143800 255 0 0
-0.562962 0.346750 -0.110903 255 0 0
0.193840 -0.782807 -0.218608 127 127 0
-0.354908 0.773768 0.004091 127 0 127
0.106317 -0.214074 -0.267814 0 255 0
0.173427 0.773768 -0.124178 127 0 127
0.162077 -0.806381 -0.076242 127 127 0
0.062303 -0.806381 -0.119940 127 127 0
0.175279 0.773768 -0.211800 127 0 127
0.253119 0.382256 0.269950 153 0 76
-0.476507 -0.388507 -0.057939 76 0 153
0.182607 0.035783 -0.291388 153 76 0
0.237060 0.400094 0.066073 204 51 127
-0.179020 0.384232 -0.273708 0 255 0
-0.389790 0.337766 -0.273708 0 255 0
-0.090064 -0.648568 0.252270 0 127 127
-0.397409 -0.175452 0.252270 0 127 127
-0.079653 0.023074 -0.267814 0 255 0
-0.482180 0.797341 0.041292 127 0 127
-0.411634 -0.782807 -0.053673 127 127 0
-0.134380 0.376521 -0.138749 204 51 127
-0.308322 -0.388507 -0.169195 76 0 153
-0.562962 -0.421282 0.070579 255 0 0
0.221532 -0.208683 -0.267814 0 255 0
-0.387516 -0.388507 -0.257166 76 0 153
-0.310868 -0.806381 -0.271354 127 127 0
-0.545282 -0.488961 0.013507 255 0 0
0.348855 -0.388507 -0.090941 76 0 153
0.050949 0.190273 -0.267814 0 255 0
0.128879 0.360212 -0.273708 0 255 0
-0.562962 -0.153245 -0.290481 255 0 0
0.159203 -0.018744 0.269950 153 0 76
0.268575 -0.476008 -0.267814 0 255 0
0.070106 0.738608 0.269950 153 0 76
-0.151362 -0.586392 -0.273708 0 255 0
-0.356370 0.454803 -0.267814 0 255 0
-0.066113 0.531938 0.252270 0 127 127
0.568553 0.763921 0.087737 0 0 255
-0.055941 0.189898 -0.273708 0 255 0
-0.414555 -0.782807 -0.213822 127 127 0
-0.443718 -0.481683 0.252270 0 127 127
0.470043 0.748606 0.269950 153 0 76
-0.171049 -0.806381 -0.123220 127 127 0
0.568553 0.757550 -0.133667 0 0 255
-0.545282 0.314729 -0.194451 255 0 0
0.357644 0.797341 0.008031 127 0 127
-0.035770 -0.554035 0.269950 0 127 127
0.049905 0.773768 -0.153320 127 0 127
-0.197092 -0.330129 0.252270 0 127 127
-0.430777 0.457357 -0.267814 0 255 0
0.066068 -0.017780 0.151710 153 0 76
-0.519284 -0.412080 0.069589 76 0 153
-0.386999 0.762372 0.269950 0 127 127
-0.303254 -0.782807 -0.056338 127 127 0
-0.480718 0.773768 -0.041044 127 0 127
0.334251 -0.142394 0.269950 153 0 76
0.280830 0.008228 -0.273708 153 76 0
-0.562962 -0.559128 0.096209 255 0 0
-0.501606 0.540072 0.269950 0 127 127
-0.562962 -0.299759 0.096984 255 0 0
-0.545282 0.159141 -0.140955 255 0 0
-0.372685 -0.489296 -0.267814 0 255 0
0.568553 0.604570 0.059259 0 0 255
0.178337 0.797341 -0.035080 127 0 127
0.550873 0.094726 -0.088365 0 0 255
0.128050 -0.017780 -0.174556 153 0 76
0.550873 -0.005820 0.169558 153 0 76
0.322380 -0.170096 -0.267814 0 255 0
0.235807 0.376521 -0.203049 204 51 127
0.495777 0.005794 0.136921 153 0 76
0.213627 0.269908 0.269950 153 0 76
0.285635 0.400094 0.107412 204 51 127
-0.545282 0.264374 0.028425 255 0 0
0.532925 -0.412080 -0.025927 76 0 153
-0.057587 0.797183 -0.291388 127 0 127
-0.080594 -0.782807 0.014518 127 127 0
-0.253046 0.255499 0.252270 0 127 127
-0.545282 0.552566 -0.262832 255 0 0
0.568553 0.243484 -0.257291 0 0 255
-0.208524 0.400094 -0.233509 204 51 127
0.328569 -0.017780 -0.176513 153 0 76
-0.236991 -0.208526 -0.267814 0 255 0
-0.269980 -0.666640 0.269950 0 127 127
-0.450513 -0.057478 0.252270 0 127 127
0.568553 0.164462 0.104598 0 0 255
-0.183095 -0.059628 -0.291388 153 76 0
-0.134692 -0.388507 0.066974 76 0 153
-0.545282 -0.688664 -0.213088 255 0 0
0.568553 0.558398 -0.230780 0 0 255
0.408240 0.797341 0.213053 127 0 127
0.454641 -0.782807 -0.166669 127 127 0
0.257028 0.005794 -0.053026 153 0 76
-0.562962 -0.530981 -0.075612 255 0 0
0.167192 -0.806381 0.077956 127 127 0
-0.208985 0.021474 -0.291388 153 76 0
0.550873 -0.254027 0.177417 0 0 255
-0.376000 -0.782807 -0.151432 127 127 0
-0.545282 -0.542407 0.164211 255 0 0
-0.545282 0.619892 -0.052004 255 0 0
0.345068 0.773768 -0.085866 127 0 127
-0.144710 0.400094 0.120162 204 51 127
-0.001642 0.661753 -0.291388 76 0 153
0.056373 -0.782807 -0.219709 127 127 0
0.196333 -0.782807 0.117008 127 127 0
-0.044565 0.351843 0.302921 76 153 0
-0.533719 -0.153531 -0.267814 0 255 0
-0.525004 -0.261136 0.269950 0 127 127
-0.378176 0.797341 -0.135374 127 0 127
0.266960 0.773768 0.104624 127 0 127
-0.545282 -0.600189 -0.228212 255 0 0
0.395982 -0.782807 0.014702 127 127 0
-0.529552 0.797341 -0.062034 127 0 127
0.476855 -0.733686 -0.291388 153 0 76
-0.072517 -0.017780 0.186838 153 0 76
0.538324 0.510769 0.252270 153 0 76
-0.288036 -0.111183 -0.267814 0 255 0
0.250939 0.797341 0.031999 127 0 127
-0.381500 0.005794 -0.212205 153 0 76
-0.445832 -0.069615 -0.267814 0 255 0
0.398077 0.773768 0.012940 127 0 127
-0.098401 0.376521 -0.074629 204 51 127
0.176671 0.773768 0.036656 127 0 127
0.122039 0.142501 -0.267814 0 255 0
-0.302911 0.319002 0.269950 0 127 127
0.005934 -0.388507 -0.078511 76 0 153
-0.195329 -0.806381 -0.235529 127 127 0
-0.034965 0.762934 -0.273708 76 0 153
-0.489088 -0.015059 -0.267814 153 0 76
0.414436 0.028963 -0.267814 0 255 0
0.310678 -0.664941 -0.284340 153 0 76
0.411841 -0.388507 -0.016161 76 0 153
0.501337 -0.201120 0.269950 153 0 76
0.568553 -0.692489 0.120565 0 0 255
-0.233126 0.400094 0.056338 204 51 127
-0.395806 -0.407468 0.269950 0 127 127
0.352405 0.250958 -0.267814 0 255 0
-0.523793 -0.274612 -0.273708 0 255 0
-0.064865 0.376521 -0.028888 204 51 127
-0.338118 0.797341 -0.065582 127 0 127
-0.131371 0.797341 0.128129 127 0 127
0.550873 -0.251401 0.050427 0 0 255
0.153301 -0.566981 -0.267814 0 255 0
0.491794 0.376521 0.084487 204 51 127
-0.418114 -0.806381 0.133590 127 127 0
-0.149636 0.773768 -0.227287 127 0 127
0.163098 0.491787 0.252270 153 0 76
-0.562962 0.792766 -0.162854 255 0 0
0.550873 -0.465744 -0.117888 0 0 255
-0.498745 -0.465260 0.269950 0 127 127
0.416904 0.318924 0.252270 153 0 76
0.004655 -0.782807 0.019105 127 127 0
0.230171 0.005794 -0.195256 153 0 76
0.550873 -0.680683 0.240611 0 0 255
0.005842 -0.277427 0.252270 153 0 76
-0.039616 -0.772033 -0.273708 0 255 0
0.247919 0.042451 -0.267814 0 255 0
-0.338973 0.005794 -0.033251 153 0 76
-0.555931 -0.560185 0.250797 255 0 0
0.566349 -0.548461 -0.291388 0 0 255
0.550873 -0.261213 -0.140385 0 0 255
-0.545282 0.618795 -0.149941 255 0 0
-0.198756 -0.288968 -0.267814 0 255 0
0.550873 -0.751883 0.214521 0 0 255
0.315602 0.797341 -0.113899 127 0 127
0.165122 0.797341 0.163838 127 0 127
0.051135 0.797341 0.005292 127 0 127
0.566843 -0.806381 -0.200514 0 0 255
-0.533326 0.469840 0.269950 0 127 127
-0.401575 -0.776558 -0.267814 0 255 0
0.257815 0.461152 -0.273708 0 255 0
0.276692 0.767137 -0.273708 0 255 0
-0.545282 -0.231977 0.068179 255 0 0
-0.404707 -0.664941 -0.287438 153 0 76
0.525421 0.698145 0.269950 153 0 76
-0.296563 0.689246 0.252270 0 127 127
0.456911 -0.782807 0.160072 127 127 0
0.120931 0.797341 -0.279589 127 0 127
0.550873 -0.663661 -0.037304 0 0 255
-0.562962 -0.408914 -0.197860 255 0 0
-0.527734 -0.412080 -0.102469 76 0 153
0.568553 0.303250 -0.151323 0 0 255
0.392324 0.601306 0.252270 153 0 76
-0.193966 -0.337662 -0.267814 0 255 0
0.568553 -0.559083 -0.125741 0 0 255
0.429545 -0.774600 -0.273708 153 0 76
0.463144 0.005794 -0.217317 153 0 76
0.171322 0.400094 -0.216642 204 51 127
0.550873 0.484755 0.092342 0 0 255
-0.099346 -0.613717 0.269950 0 127 127
-0.535795 -0.312286 0.252270 0 127 127
-0.154454 -0.806381 0.184324 127 127 0
-0.223135 0.134441 0.269950 0 127 127
0.095971 0.346334 0.269950 153 0 76
-0.467567 0.773768 0.151941 127 0 127
-0.359389 0.483324 0.269950 0 127 127
-0.203777 0.315429 0.252270 0 127 127
0.550873 0.593994 0.219544 0 0 255
-0.227587 0.053846 -0.291388 153 76 0
-0.011900 -0.038397 -0.291388 153 76 0
-0.316867 0.386830 -0.273708 0 255 0
-0.545282 0.491630 -0.276040 255 0 0
-0.306999 -0.017780 -0.076920 153 0 76
-0.486106 -0.806381 0.022486 127 127 0
0.125070 0.679042 -0.273708 76 0 153
-0.354846 0.311156 -0.267814 0 255 0
0.290768 0.400094 -0.168808 204 51 127
-0.545282 -0.075196 0.065287 255 0 0
0.477195 -0.782807 0.040899 127 127 0
-0.075246 0.640223 -0.267814 0 255 0
-0.405401 0.376521 -0.018016 204 51 127
-0.089435 -0.365825 0.269950 0 127 127
0.390249 -0.412080 0.077342 76 0 153
0.039556 0.773768 0.167754 127 0 127
-0.392534 0.188758 0.252270 0 127 127
-0.309585 -0.655963 0.269950 0 127 127
-0.354539 -0.015222 0.269950 0 127 127
-0.375878 -0.412080 0.231357 76 0 153
0.158626 -0.806381 -0.018497 127 127 0
-0.032080 -0.662262 0.252270 0 127 127
-0.001140 0.615424 0.269950 0 127 127
0.380165 -0.092462 0.252270 153 0 76
0.195308 -0.806381 0.035651 127 127 0
0.568553 0.715729 -0.083972 0 0 255
0.078317 0.376521 -0.157663 204 51 127
0.299299 0.797341 0.179881 127 0 127
0.395260 0.797341 0.045662 127 0 127
0.117544 -0.806381 -0.111173 127 127 0
0.172492 -0.264286 -0.273708 0 255 0
-0.451336 -0.806381 -0.130684 127 127 0
-0.562962 0.274445 -0.030786 255 0 0
0.568553 -0.635344 -0.157698 0 0 255
0.550873 -0.142662 0.099897 0 0 255
0.568553 0.584760 -0.175426 0 0 255
0.568553 0.762988 -0.270787 0 0 255
-0.239423 -0.388507 -0.127367 76 0 153
-0.562962 -0.346314 0.048405 255 0 0
-0.322293 0.767648 -0.273708 76 0 153
-0.161798 -0.017780 0.106129 153 0 76
-0.562962 0.704905 0.140303 255 0 0
0.550873 -0.424602 0.182796 0 0 255
-0.152237 -0.388507 0.124092 76 0 153
-0.137498 -0.323402 0.252270 0 127 127
-0.468463 -0.017780 0.046647 153 0 76
-0.439582 -0.781767 0.252270 0 127 127
0.534815 -0.017780 -0.033541 153 0 76
0.023525 -0.017780 0.237629 153 0 76
0.568553 0.700655 -0.197650 0 0 255
0.305265 0.393253 -0.273708 0 255 0
0.048865 -0.017780 -0.035028 153 0 76
-0.499906 0.005794 0.183194 153 0 76
0.103867 -0.137485 0.269950 153 0 76
-0.366519 -0.017780 0.052315 153 0 76
0.501304 -0.782807 -0.236388 127 127 0
-0.393058 0.005794 -0.129603 153 0 76
-0.051533 0.271855 -0.273708 0 255 0
0.410305 0.084950 -0.267814 0 255 0
0.201397 -0.388507 -0.174214 76 0 153
0.093750 0.005794 0.182344 153 0 76
-0.014699 -0.412080 -0.206258 76 0 153
0.247965 -0.412080 -0.266726 76 0 153
0.351170 -0.473881 0.252270 153 0 76
0.009284 -0.435562 -0.267814 0 255 0
0.258714 -0.412080 -0.096852 76 0 153
0.040899 0.125569 0.252270 153 0 76
0.058780 0.060510 0.252270 153 0 76
0.568553 -0.492867 0.187634 0 0 255
-0.545282 -0.796661 0.183245 127 127 0
-0.361958 -0.388507 -0.226057 76 0 153
-0.274874 -0.806381 0.070088 127 127 0
-0.006712 -0.624480 -0.267814 0 255 0
0.550873 0.287843 0.030580 0 0 255
0.142457 -0.761131 0.269950 153 0 76
-0.162975 0.008051 0.269950 0 127 127
-0.256965 -0.022569 0.269950 0 127 127
-0.369088 0.118876 0.269950 0 127 127
-0.308449 -0.614155 0.269950 0 127 127
-0.179089 0.773768 0.137477 127 0 127
0.520448 -0.412080 0.207472 76 0 153
-0.562962 -0.710101 -0.015569 255 0 0
0.092792 0.599614 -0.267814 0 255 0
-0.135043 0.273396 0.252270 0 127 127
0.335667 0.400094 -0.042374 204 51 127
-0.545282 0.243240 -0.282212 255 0 0
-0.562962 -0.579027 -0.138553 255 0 0
0.550873 0.545994 -0.108976 0 0 255
-0.181529 -0.792323 0.269950 0 127 127
0.030882 0.773768 -0.109909 127 0 127
-0.211431 -0.388507 -0.150194 76 0 153
0.347429 0.400094 0.232791 204 51 127
0.550873 0.418255 -0.015051 0 0 255
-0.410473 -0.330853 -0.273708 0 255 0
-0.562962 -0.118869 -0.254924 255 0 0
-0.561489 0.574736 0.257455 0 127 127
0.115409 -0.281619 0.269950 153 0 76
-0.168044 0.773768 -0.067408 127 0 127
0.019352 -0.672869 -0.291388 153 0 76
-0.330433 -0.601164 -0.267814 0 255 0
-0.545282 0.357692 -0.144879 255 0 0
0.550873 0.260538 0.129051 0 0 255
0.064816 0.797341 -0.263701 127 0 127
-0.229391 0.275302 -0.273708 0 255 0
0.550873 -0.505759 0.085642 0 0 255
-0.519808 -0.073317 -0.273708 0 255 0
-0.347383 0.797341 -0.186856 127 0 127
-0.347511 0.537436 -0.273708 0 255 0
-0.545282 0.187332 -0.241921 255 0 0
0.568553 0.165564 -0.136380 0 0 255
-0.242678 -0.149609 0.252270 0 127 127
0.550873 0.396975 -0.126586 204 51 127
0.522412 -0.412080 0.055025 76 0 153
-0.281736 -0.412080 -0.090184 76 0 153
0.446459 0.400094 -0.112090 204 51 127
-0.562962 -0.649697 -0.122207 255 0 0
0.534294 -0.412080 0.111547 76 0 153
0.115627 0.222105 0.252270 153 0 76
-0.489485 0.773768 0.230328 127 0 127
0.004268 -0.597443 0.267915 153 0 76
-0.562962 -0.804792 -0.258273 255 0 0
-0.545282 -0.766041 -0.119153 255 0 0
0.322400 0.400094 0.004091 204 51 127
0.169095 -0.437964 0.269950 153 0 76
-0.386358 0.773768 0.064303 127 0 127
-0.051562 -0.806381 0.145284 127 127 0
0.560615 0.252533 -0.291388 0 0 255
0.523775 -0.017780 0.227261 153 0 76
0.150872 -0.704804 -0.273708 0 255 0
0.147113 -0.806381 -0.237565 127 127 0
0.550873 0.411815 0.235414 0 0 255
0.354670 0.376521 -0.203522 204 51 127
-0.077512 -0.412080 0.009895 76 0 153
0.376506 0.005794 -0.084134 153 0 76
0.568553 0.070268 -0.251616 0 0 255
-0.308311 -0.200160 -0.267814 0 255 0
0.568553 0.680948 0.159358 0 0 255
-0.448152 -0.005400 -0.291388 153 76 0
0.387405 -0.782807 -0.046376 127 127 0
0.568553 -0.055127 -0.041261 0 0 255
-0.545282 0.002982 0.008555 153 0 76
-0.491458 0.005794 -0.009635 153 0 76
-0.254937 -0.545091 -0.273708 0 255 0
0.550873 0.177904 0.062821 0 0 255
0.550873 -0.182226 -0.248195 0 0 255
-0.460463 0.760579 -0.267814 0 255 0
-0.480019 0.310873 0.269950 0 127 127
-0.269168 0.773768 0.009266 127 0 127
-0.560758 0.249086 0.250797 255 0 0
0.245362 -0.806381 0.144459 127 127 0
-0.053587 -0.412080 0.211186 76 0 153
-0.032167 -0.388507 -0.176458 76 0 153
-0.561489 -0.129419 0.269047 0 127 127
0.550873 0.437915 0.180737 0 0 255
0.249030 0.420132 -0.267814 0 255 0
0.234076 0.688811 0.269950 153 0 76
-0.247611 -0.806381 -0.169452 127 127 0
-0.509555 0.797341 -0.197035 127 0 127
0.133672 0.773768 -0.170981 127 0 127
-0.060599 0.400094 0.062423 204 51 127
0.086989 -0.782807 0.017641 127 127 0
-0.208105 0.171559 -0.273708 0 255 0
0.266569 -0.677142 -0.267814 0 255 0
0.231839 -0.010600 0.269950 153 0 76
0.111347 -0.430894 0.269950 153 0 76
-0.562962 0.097531 -0.024185 255 0 0
0.400476 -0.485116 -0.267814 0 255 0
0.460666 0.376521 -0.025357 204 51 127
0.395389 -0.782807 0.240520 127 127 0
0.097733 0.016109 0.252270 153 0 76
0.168876 -0.388507 -0.258686 76 0 153
0.323986 -0.780158 0.252270 153 0 76
-0.214213 -0.012653 -0.267814 153 0 76
-0.126837 0.083323 0.269950 0 127 127
-0.545282 0.717277 0.072906 255 0 0
0.008681 -0.412080 -0.240887 76 0 153
0.465957 -0.674616 -0.273708 0 255 0
0.348561 0.435428 0.269950 153 0 76
0.523623 -0.800497 0.250797 127 127 0
0.306995 0.773768 0.092105 127 0 127
0.300197 -0.211178 0.269950 153 0 76
-0.056945 0.741070 -0.291388 76 0 153
-0.562962 -0.017383 -0.027823 255 0 0
0.568553 0.667833 0.064731 0 0 255
-0.070153 -0.017780 -0.089162 153 0 76
0.232836 0.773768 -0.045243 127 0 127
-0.472231 -0.574101 -0.273708 0 255 0
0.356083 -0.400343 0.252270 153 0 76
-0.076928 0.376521 -0.221843 204 51 127
-0.379612 0.404904 0.269950 0 127 127
0.332469 0.249318 0.252270 153 0 76
-0.056338 0.030116 0.269950 0 127 127
-0.545282 0.514671 -0.230893 255 0 0
0.175195 0.151384 0.252270 153 0 76
0.568553 0.235971 -0.093676 0 0 255
-0.118442 -0.044428 -0.273708 0 255 0
0.568553 -0.777503 -0.148167 0 0 255
-0.482930 0.797341 0.093274 127 0 127
0.568553 -0.593901 -0.217723 0 0 255
-0.111670 -0.169288 -0.267814 0 255 0
0.568553 0.301916 0.182574 0 0 255
-0.133948 0.194037 -0.267814 0 255 0
0.550873 0.407089 0.087023 0 0 255
0.550873 -0.091255 -0.011496 0 0 255
-0.428195 -0.156215 -0.267814 0 255 0
0.325608 -0.806381 0.035000 127 127 0
-0.065722 -0.412080 -0.100543 76 0 153
-0.059035 -0.388507 0.032620 76 0 153
0.434521 0.797341 -0.036618 127 0 127
-0.562962 -0.129480 -0.194786 255 0 0
0.371699 0.514193 0.269950 153 0 76
-0.096943 -0.642280 -0.273708 0 255 0
-0.273448 0.773768 -0.099997 127 0 127
0.512449 0.158931 -0.267814 0 255 0
-0.226140 0.764085 -0.273708 0 255 0
0.229343 -0.709995 0.269950 153 0 76
0.494845 -0.806381 -0.285025 127 127 0
-0.202462 -0.806381 0.159429 127 127 0
-0.562962 -0.371604 -0.287023 255 0 0
0.427125 -0.240288 -0.267814 0 255 0
-0.545282 -0.701619 -0.286413 255 0 0
0.110891 -0.806381 0.066321 127 127 0
0.135143 -0.388507 -0.119345 76 0 153
-0.389475 -0.806381 -0.205107 127 127 0
-0.291349 0.082029 -0.273708 0 255 0
0.288434 0.376521 -0.207455 204 51 127
-0.545282 0.654181 0.184267 255 0 0
0.280175 0.773768 -0.049237 127 0 127
0.159751 0.624569 0.252270 153 0 76
0.484684 -0.017780 -0.011948 153 0 76
0.334723 0.521487 -0.273708 0 255 0
-0.174093 -0.122558 0.252270 0 127 127
-0.175321 0.773768 0.082340 127 0 127
0.535429 0.797341 -0.079530 127 0 127
0.541357 0.797341 -0.260184 127 0 127
0.495905 0.097392 -0.267814 0 255 0
0.403858 0.376521 0.021950 204 51 127
-0.031247 0.797341 -0.113807 127 0 127
0.324519 -0.375618 0.252270 153 0 76
-0.359900 -0.388507 -0.093783 76 0 153
0.462124 -0.420161 -0.267814 0 255 0
-0.545282 0.233160 0.205964 255 0 0
0.091073 -0.373510 -0.273708 0 255 0
0.568553 -0.319817 0.156630 0 0 255
0.195120 0.163331 -0.273708 0 255 0
0.383036 -0.782807 0.123272 127 127 0
-0.419821 -0.223516 0.252270 0 127 127
0.467387 -0.744251 0.252270 153 0 76
-0.545282 -0.725541 -0.216877 255 0 0
-0.562962 -0.534396 -0.224473 255 0 0
-0.296297 0.456729 0.252270 0 127 127
0.457977 0.718669 0.252270 153 0 76
0.568553 0.768739 0.134053 0 0 255
0.103605 0.081646 -0.273708 0 255 0
-0.111472 0.125092 0.269950 0 127 127
-0.495442 0.439949 -0.273708 0 255 0
-0.447453 0.797341 0.052394 127 0 127
0.568553 0.083745 0.039723 0 0 255
0.550873 0.042913 0.231218 0 0 255
-0.499711 0.281152 0.252270 0 127 127
0.423240 -0.412080 0.244758 76 0 153
-0.562962 0.095709 -0.202730 255 0 0
0.267764 0.250816 0.269950 153 0 76
-0.436586 -0.388507 -0.192665 76 0 153
0.039788 0.796415 0.250797 127 0 127
-0.048680 -0.782807 -0.006243 127 127 0
-0.281319 -0.412080 0.094186 76 0 153
-0.008617 0.773768 -0.099783 127 0 127
-0.249278 -0.782807 -0.233503 127 127 0
-0.210582 -0.017780 0.120279 153 0 76
-0.293079 -0.474277 0.252270 0 127 127
-0.122191 -0.412080 -0.023954 76 0 153
-0.087483 -0.412080 -0.216420 76 0 153
-0.347810 -0.017780 -0.224771 153 0 76
-0.375677 -0.806381 0.129029 127 127 0
0.201372 0.636064 -0.273708 0 255 0
-0.540353 0.773768 0.236588 127 0 127
0.015970 0.247699 0.269950 153 0 76
0.550873 0.154202 0.235843 0 0 255
-0.455461 0.792724 0.250797 127 0 127
-0.140654 -0.388507 -0.234087 76 0 153
0.011242 -0.782807 -0.037542 127 127 0
-0.009426 0.376521 -0.200245 204 51 127
-0.535822 0.773768 0.148099 127 0 127
-0.533294 -0.017780 -0.054022 153 0 76
0.514245 -0.624810 -0.267814 0 255 0
0.041398 0.400094 0.112410 204 51 127
0.568553 -0.638124 -0.099610 0 0 255
-0.513722 -0.017780 0.100178 153 0 76
-0.302443 -0.388507 0.232838 76 0 153
0.038753 0.514679 0.252270 153 0 76
0.535459 -0.388507 -0.208882 76 0 153
-0.428559 0.500329 -0.273708 0 255 0
0.250814 -0.258878 0.269950 153 0 76
0.196231 0.076797 0.269950 153 0 76
0.183504 0.689822 0.269950 153 0 76
0.568553 0.007861 -0.288012 0 0 255
0.317360 0.797341 0.041393 127 0 127
-0.528204 0.400094 -0.007133 204 51 127
-0.545282 -0.798882 0.237094 127 127 0
-0.427843 -0.720636 -0.273708 153 0 76
0.461563 -0.591231 -0.273708 0 255 0
0.550873 0.560817 -0.050124 0 0 255
-0.424002 -0.806381 -0.084870 127 127 0
-0.101326 -0.782807 -0.255139 127 127 0
-0.178176 0.659156 -0.267814 0 255 0
-0.126786 0.400094 0.241137 204 51 127
0.511239 -0.412080 0.171512 76 0 153
-0.562962 0.535503 0.175632 255 0 0
0.568553 0.233994 0.092914 0 0 255
0.069951 -0.514249 0.269950 153 0 76
0.182303 -0.598370 -0.267814 0 255 0
0.055011 -0.388507 -0.190555 76 0 153
0.289616 0.275716 -0.267814 0 255 0
0.505896 -0.432481 0.269950 153 0 76
0.035387 0.032312 -0.267814 0 255 0
0.550873 0.792211 0.020349 0 0 255
-0.221472 -0.782807 0.207985 127 127 0
-0.394120 -0.034100 -0.273708 153 76 0
0.033644 0.685165 -0.291388 76 0 153
0.010273 0.288712 -0.273708 0 255 0
0.535665 0.059316 0.269950 153 0 76
0.568553 -0.695222 0.176874 0 0 255
0.141700 0.005794 0.153566 153 0 76
-0.562962 0.127329 -0.217782 255 0 0
-0.545282 -0.096000 0.216467 255 0 0
-0.562962 0.294377 0.146981 255 0 0
-0.545282 0.276300 0.115795 255 0 0
-0.523010 0.797341 -0.269500 127 0 127
-0.480802 -0.806381 0.136561 127 127 0
-0.562962 0.217539 -0.186127 255 0 0
-0.545282 0.034805 -0.252199 255 0 0
-0.318724 0.689033 -0.267814 0 255 0
-0.451356 0.142835 0.269950 0 127 127
-0.141770 -0.139641 0.252270 0 127 127
-0.186976 0.471502 0.252270 0 127 127
-0.352296 -0.611325 0.269950 0 127 127
-0.180607 -0.026538 0.269950 0 127 127
-0.562962 -0.689653 -0.143892 255 0 0
0.218021 0.587334 -0.273708 0 255 0
0.558718 -0.688796 -0.291388 0 0 255
0.550873 -0.523789 -0.229316 0 0 255
0.458984 0.005794 0.097271 153 0 76
-0.477310 0.376521 0.229681 204 51 127
0.195493 0.000683 -0.273708 0 255 0
-0.284068 -0.782807 0.192326 127 127 0
0.313853 0.708620 -0.267814 0 255 0
0.381126 0.303045 0.269950 153 0 76
0.063456 -0.412080 -0.043936 76 0 153
-0.125024 -0.806381 -0.119493 127 127 0
-0.058518 -0.288770 -0.267814 0 255 0
-0.562962 0.364088 -0.258707 255 0 0
0.426547 -0.181230 0.269950 153 0 76
-0.389115 -0.444408 0.269950 0 127 127
0.568553 -0.305646 -0.057551 0 0 255
-0.305712 -0.681196 -0.273708 0 255 0
-0.511102 -0.629829 -0.267814 0 255 0
0.433932 0.251379 0.252270 153 0 76
0.208082 -0.365758 0.269950 153 0 76
-0.562962 0.232564 -0.041854 255 0 0
0.487438 0.773768 -0.268666 127 0 127
0.487490 0.251584 -0.273708 0 255 0
-0.166776 0.773768 -0.012186 127 0 127
-0.101915 0.623869 0.269950 0 127 127
-0.273352 0.773768 0.076562 127 0 127
-0.165045 0.400094 0.035764 204 51 127
-0.134441 -0.751491 0.269950 0 127 127
0.568553 0.099464 0.115598 0 0 255
-0.276734 0.376521 -0.127299 204 51 127
-0.544223 0.414839 -0.273708 0 255 0
0.005788 -0.782807 0.101082 127 127 0
-0.369437 -0.017780 -0.079342 153 0 76
0.474057 0.355602 0.269950 153 0 76
-0.325999 -0.806381 0.156841 127 127 0
0.499028 0.328514 0.269950 153 0 76
0.389385 -0.017780 -0.000785 153 0 76
0.115192 -0.388507 0.079641 76 0 153
0.457491 0.793406 0.269950 153 0 76
-0.395166 0.380239 0.244903 204 51 127
0.568553 0.258950 0.005359 0 0 255
0.139825 0.005794 -0.029801 153 0 76
-0.562962 0.382431 -0.061423 255 0 0
-0.244020 0.005794 -0.077522 153 0 76
0.550873 0.718031 0.087567 0 0 255
-0.352874 -0.806381 0.237864 127 127 0
-0.289427 0.426153 -0.273708 0 255 0
-0.241237 -0.640287 0.252270 0 127 127
0.568553 -0.190768 -0.011370 0 0 255
-0.363638 0.005794 0.001015 153 0 76
-0.562962 -0.413557 0.034751 255 0 0
-0.523536 0.400094 -0.133988 204 51 127
-0.181409 0.760160 0.269950 0 127 127
-0.529359 -0.782807 -0.222043 127 127 0
0.568553 0.504388 -0.048790 0 0 255
-0.545282 -0.550157 0.124678 255 0 0
-0.562962 0.129868 -0.149093 255 0 0
-0.065025 -0.017780 -0.008123 153 0 76
0.230285 -0.412080 0.024005 76 0 153
-0.314789 -0.272808 -0.273708 0 255 0
0.196421 0.005794 0.078806 153 0 76
0.542293 -0.388507 -0.051452 76 0 153
0.550873 -0.108763 0.092637 0 0 255
-0.562962 0.007699 -0.203033 255 0 0
-0.382940 0.740590 -0.273708 76 0 153
0.073298 -0.713082 -0.291388 153 0 76
-0.132879 0.797341 0.092401 127 0 127
