ply
format ascii 1.0
element vertex 1269
property float x
property float y
property float z
property uchar red
property uchar green
property uchar blue
end_header
-0.157981 0.773768 -0.252294 127 0 127
-0.102152 0.797341 -0.094671 127 0 127
-0.562962 0.414330 -0.209323 255 0 0
0.499989 0.773768 0.067166 127 0 127
0.550873 0.039190 0.188212 0 0 255
-0.545282 -0.231632 -0.092435 255 0 0
0.014173 -0.017780 0.085426 153 0 76
0.076026 0.376521 0.016841 204 51 127
0.553814 0.797341 -0.265116 127 0 127
-0.206262 -0.767401 -0.291388 127 127 0
0.190641 0.005794 0.050301 153 0 76
0.372208 0.591002 -0.267814 0 255 0
0.021787 -0.412080 -0.120929 76 0 153
0.550873 0.183755 -0.176957 0 0 255
-0.316883 -0.388507 0.196423 76 0 153
-0.504471 0.400094 -0.091418 204 51 127
0.378312 0.797341 0.197756 127 0 127
0.030799 0.245671 -0.273708 0 255 0
0.099799 0.797341 -0.001819 127 0 127
-0.442942 -0.782807 0.154655 127 127 0
-0.306913 -0.412080 -0.002882 76 0 153
-0.122315 -0.770476 -0.291388 153 0 76
-0.261701 0.400094 -0.077044 204 51 127
-0.562962 0.713705 -0.251298 255 0 0
-0.493676 -0.060191 -0.291388 153 76 0
-0.026618 -0.735551 -0.273708 153 0 76
-0.136153 -0.017780 -0.047329 153 0 76
-0.131872 0.376521 0.203413 204 51 127
0.136907 -0.782807 0.154949 127 127 0
-0.019415 -0.754621 0.252270 0 127 127
0.251194 -0.388507 -0.107275 76 0 153
0.509545 -0.412080 0.026920 76 0 153
-0.331143 0.433656 0.269950 0 127 127
-0.491465 0.400094 0.092656 204 51 127
-0.425782 -0.388507 0.113353 76 0 153
-0.215348 -0.311798 0.269950 0 127 127
-0.227795 0.528178 -0.267814 0 255 0
0.456043 0.704170 -0.291388 76 0 153
-0.465738 -0.782807 0.059995 127 127 0
-0.324938 -0.412080 0.031888 76 0 153
-0.510912 -0.017780 0.209389 153 0 76
-0.251562 0.707563 0.252270 0 127 127
-0.049851 0.236250 0.294907 76 153 0
-0.287685 -0.749955 -0.273708 0 255 0
-0.209513 -0.782807 -0.185057 127 127 0
-0.340245 -0.017780 -0.200787 153 0 76
0.115984 -0.776385 -0.291388 153 0 76
0.134847 -0.782807 -0.152757 127 127 0
0.430357 0.797341 0.154803 127 0 127
-0.547996 -0.469163 0.269950 0 127 127
-0.207306 0.797341 -0.187940 127 0 127
0.494113 0.376521 0.209566 204 51 127
0.287348 0.740832 -0.291388 76 0 153
-0.127446 -0.366639 0.269950 0 127 127
0.077959 0.073146 0.252270 153 0 76
0.408098 -0.017780 -0.243052 153 0 76
0.015598 0.773768 -0.211909 127 0 127
0.157635 0.572146 -0.273708 0 255 0
0.550873 -0.153883 -0.134986 0 0 255
0.230837 -0.795736 0.269950 153 0 76
0.278010 -0.280856 -0.273708 0 255 0
-0.395052 -0.202925 0.252270 0 127 127
0.348859 -0.009203 -0.267814 153 76 0
0.190893 -0.806381 0.141756 127 127 0
0.568553 -0.459817 0.078686 0 0 255
-0.545282 0.075496 -0.132021 255 0 0
0.191148 -0.782807 -0.039767 127 127 0
0.568553 -0.128414 0.129869 0 0 255
-0.512092 0.773768 -0.222863 127 0 127
-0.380726 0.005794 0.113082 153 0 76
-0.129613 0.797341 -0.288768 127 0 127
-0.407396 0.797341 -0.173957 127 0 127
-0.372231 0.773768 -0.072725 127 0 127
-0.111046 -0.806381 -0.109409 127 127 0
0.046937 0.235509 0.269950 153 0 76
-0.246135 -0.223805 0.252270 0 127 127
0.568553 -0.773582 -0.151688 0 0 255
0.343107 0.032252 0.252270 153 0 76
-0.562962 0.522016 -0.270891 255 0 0
-0.209645 -0.412080 -0.098715 76 0 153
0.187119 -0.388507 0.236730 76 0 153
-0.287556 0.400094 -0.054305 204 51 127
0.550873 -0.149550 0.076293 0 0 255
0.102303 -0.240573 0.252270 153 0 76
-0.156167 0.005794 0.199245 153 0 76
-0.562962 -0.370779 0.133280 255 0 0
0.550873 0.731796 -0.031038 0 0 255
0.568553 0.258249 -0.224253 0 0 255
0.381530 -0.708770 -0.273708 153 0 76
0.544448 0.443759 -0.267814 0 255 0
-0.389969 -0.497780 0.269950 0 127 127
-0.462465 -0.388507 -0.172868 76 0 153
-0.495581 -0.017780 -0.038041 153 0 76
0.511663 -0.017780 0.083207 153 0 76
0.154013 -0.613531 -0.267814 0 255 0
-0.382350 -0.806381 -0.035006 127 127 0
-0.305371 -0.806381 0.065174 127 127 0
0.316440 0.005794 0.065251 153 0 76
0.243866 -0.412080 0.055346 76 0 153
-0.545282 0.626142 -0.100879 255 0 0
0.226215 0.376521 -0.101097 204 51 127
-0.519105 -0.757770 0.269950 0 127 127
-0.102467 0.400094 0.183700 204 51 127
-0.545282 0.763816 0.149241 127 0 127
-0.354611 -0.806381 -0.053440 127 127 0
-0.294824 -0.806381 -0.058861 127 127 0
-0.545282 -0.424627 0.189245 255 0 0
0.002018 0.376521 -0.155418 204 51 127
-0.562962 -0.679500 0.225532 255 0 0
-0.562962 -0.617856 -0.205601 255 0 0
-0.468294 -0.782807 -0.167971 127 127 0
0.170480 -0.487141 0.252270 153 0 76
-0.545282 -0.324647 0.100277 255 0 0
-0.362116 0.797341 -0.210105 127 0 127
0.359484 -0.202407 -0.267814 0 255 0
-0.562962 -0.454832 -0.163545 255 0 0
0.292191 0.012568 0.269950 153 0 76
0.562046 -0.403706 -0.291388 0 0 255
0.280307 -0.062940 -0.291388 0 255 0
-0.391872 0.400094 0.133499 204 51 127
-0.119188 0.005794 0.019825 153 0 76
0.149216 -0.782807 0.126244 127 127 0
-0.265855 0.773768 -0.216679 127 0 127
0.128239 -0.057096 -0.273708 0 255 0
0.399626 0.005794 0.032176 153 0 76
-0.256704 0.797341 -0.129775 127 0 127
0.023704 -0.412080 0.132066 76 0 153
0.165113 -0.782807 -0.188940 127 127 0
-0.367172 0.137729 -0.267814 0 255 0
0.022696 -0.644689 -0.267814 0 255 0
-0.508558 -0.541101 0.252270 0 127 127
-0.066482 0.797341 -0.211145 127 0 127
-0.091828 -0.186978 0.252270 0 127 127
-0.562962 0.445878 -0.073706 255 0 0
-0.562962 0.469913 0.233614 255 0 0
-0.244424 -0.127951 -0.267814 0 255 0
-0.545282 0.187154 0.226059 255 0 0
0.235030 -0.777441 -0.267814 0 255 0
-0.194868 0.376521 -0.031418 204 51 127
0.018355 0.773768 -0.165462 127 0 127
-0.474531 -0.412080 0.077260 76 0 153
0.081008 -0.665707 -0.267814 0 255 0
-0.205702 -0.782807 -0.050670 127 127 0
0.435568 -0.412080 -0.015355 76 0 153
-0.535821 -0.806381 -0.004157 255 0 0
-0.348739 0.243736 -0.273708 0 255 0
0.568553 -0.329859 -0.186294 0 0 255
0.195388 0.400094 -0.188902 204 51 127
0.387566 0.633891 -0.273708 0 255 0
0.039770 0.797341 -0.008425 127 0 127
-0.446596 0.773768 -0.133971 127 0 127
-0.234830 -0.261881 0.269950 0 127 127
0.234102 -0.782807 0.179188 127 127 0
-0.000721 0.773768 -0.035730 127 0 127
0.072476 0.655902 -0.288519 76 0 153
-0.353942 -0.388507 0.176942 76 0 153
0.010193 -0.400950 0.269950 0 127 127
0.312065 -0.017780 0.001718 153 0 76
-0.562962 0.469467 -0.022704 255 0 0
-0.357062 0.038297 0.252270 0 127 127
-0.384582 -0.260968 -0.267814 0 255 0
0.525747 -0.017780 -0.158911 153 0 76
-0.111269 -0.593536 -0.267814 0 255 0
0.375548 -0.744510 -0.273708 0 255 0
0.114813 0.005794 -0.088216 153 0 76
0.450748 0.376521 -0.186827 204 51 127
-0.271766 -0.612507 0.252270 0 127 127
0.568553 0.516451 0.209513 0 0 255
-0.500559 -0.806381 0.187591 127 127 0
0.568553 -0.613357 -0.056307 0 0 255
-0.101891 -0.323272 -0.273708 0 255 0
-0.110918 -0.683832 -0.291388 153 0 76
-0.545282 0.751413 -0.189427 255 0 0
0.383851 -0.412080 -0.035359 76 0 153
-0.365118 0.400094 0.238015 0 127 127
0.271681 0.714556 0.252270 153 0 76
-0.248542 0.797341 -0.213606 127 0 127
0.233455 0.546873 -0.267814 0 255 0
-0.425235 -0.017780 -0.105854 153 0 76
0.078946 -0.113585 0.252270 153 0 76
0.568553 0.422383 -0.135351 0 0 255
-0.167627 -0.806381 -0.208740 127 127 0
0.034567 -0.806381 0.056194 127 127 0
-0.562962 0.535060 -0.220031 255 0 0
-0.545282 0.708037 0.038851 255 0 0
0.149879 -0.388507 -0.222210 76 0 153
0.306023 0.400094 -0.180204 204 51 127
0.434891 -0.806381 -0.272206 127 127 0
0.543568 -0.773140 0.269950 153 0 76
-0.293126 0.005794 0.031619 153 0 76
0.519367 0.797341 0.041987 127 0 127
-0.399142 0.708762 0.269950 0 127 127
0.108960 -0.549224 0.252270 153 0 76
-0.258206 -0.278284 -0.267814 0 255 0
0.550873 -0.665513 0.077507 0 0 255
-0.179295 -0.388507 0.035298 76 0 153
0.185124 -0.017780 0.210613 153 0 76
-0.300113 -0.388507 0.019271 76 0 153
-0.257061 -0.806381 -0.002032 127 127 0
-0.211641 -0.412080 0.111271 76 0 153
0.216862 -0.412080 -0.113989 76 0 153
-0.156388 -0.042154 -0.267814 153 76 0
-0.031237 0.797341 0.149724 127 0 127
-0.324671 -0.712480 -0.291388 153 0 76
-0.332714 0.376521 -0.143660 204 51 127
-0.144195 -0.782807 0.051381 127 127 0
0.318965 -0.017780 -0.230815 153 0 76
-0.545282 -0.585448 0.127120 255 0 0
0.426247 0.580136 0.252270 153 0 76
0.155993 0.669193 -0.291388 76 0 153
0.356155 0.773768 0.175518 127 0 127
-0.501601 0.052493 -0.267814 153 76 0
-0.278516 0.053186 0.269950 0 127 127
-0.287986 -0.782807 0.017728 127 127 0
-0.176547 -0.159408 -0.273708 0 255 0
-0.058526 0.376521 -0.202219 204 51 127
0.550873 0.171795 0.012268 0 0 255
0.113965 0.773768 0.196825 127 0 127
-0.425893 0.400094 0.125910 204 51 127
0.321602 0.797341 0.167402 127 0 127
0.568553 0.639781 0.149882 0 0 255
-0.042136 0.773768 -0.161124 127 0 127
-0.192623 0.400094 -0.085748 204 51 127
-0.536707 0.677625 0.269950 0 127 127
0.207798 0.400094 0.194459 204 51 127
-0.405763 -0.412080 0.070812 76 0 153
-0.186352 -0.017780 -0.026947 153 0 76
-0.012608 0.021803 0.269950 0 127 127
-0.269030 -0.412080 -0.004096 76 0 153
0.152088 0.482036 0.269950 153 0 76
-0.191818 0.400094 0.242557 204 51 127
0.329404 0.400094 0.052295 204 51 127
0.284794 0.773768 -0.245418 127 0 127
-0.009599 -0.017780 0.045666 153 0 76
-0.562962 -0.200606 -0.248453 255 0 0
0.395802 -0.698016 0.252270 153 0 76
-0.012544 -0.806381 -0.243916 127 127 0
-0.192723 -0.159115 0.252270 0 127 127
0.088779 0.122907 0.269950 153 0 76
-0.019469 0.376521 0.052312 204 51 127
-0.139155 -0.067441 0.269950 0 127 127
-0.058535 -0.806381 -0.013711 127 127 0
-0.247772 -0.388507 -0.072281 76 0 153
0.440878 0.376521 0.207913 204 51 127
-0.545282 -0.184228 -0.159730 255 0 0
0.426059 0.400094 0.151603 204 51 127
-0.130643 -0.412080 0.100145 76 0 153
-0.467777 0.376521 0.081034 204 51 127
-0.538070 -0.286347 0.269950 0 127 127
-0.539102 -0.114417 -0.273708 0 255 0
-0.450981 0.376521 0.169621 204 51 127
0.299211 -0.179665 -0.267814 0 255 0
0.048446 0.575700 0.252270 153 0 76
-0.035538 -0.388507 -0.094220 76 0 153
-0.340401 -0.001254 -0.291388 153 76 0
0.428676 -0.782807 -0.157187 127 127 0
0.085336 -0.782807 0.225910 127 127 0
-0.545282 -0.573230 -0.243206 255 0 0
-0.562962 0.294060 0.246341 255 0 0
0.305444 -0.171478 0.252270 153 0 76
-0.397901 -0.650538 0.269950 0 127 127
-0.008941 -0.806381 0.214104 127 127 0
0.008283 -0.782807 -0.061973 127 127 0
0.427731 -0.234955 -0.267814 0 255 0
0.473923 0.797341 -0.100774 127 0 127
-0.181590 -0.702715 -0.267814 153 0 76
-0.001117 0.773768 0.049169 127 0 127
0.283617 0.376521 0.134196 204 51 127
0.195883 0.372113 -0.273708 0 255 0
0.545094 0.764771 0.269950 153 0 76
-0.444567 0.400094 -0.180629 204 51 127
-0.104104 0.089241 0.269950 0 127 127
0.217528 0.376521 0.229206 204 51 127
-0.176741 0.005794 -0.108641 153 0 76
0.184330 -0.388507 0.118354 76 0 153
-0.114068 0.400094 -0.233022 204 51 127
0.249473 -0.782807 0.088685 127 127 0
0.172387 -0.674446 0.252270 153 0 76
0.201535 0.735884 0.269950 153 0 76
-0.562962 -0.266019 -0.114557 255 0 0
-0.446795 -0.376679 0.269950 0 127 127
0.476464 -0.665003 -0.267814 0 255 0
0.268513 -0.782807 -0.157592 127 127 0
0.478617 0.376521 0.121810 204 51 127
-0.164220 0.610621 0.269950 0 127 127
-0.189864 -0.539947 -0.267814 0 255 0
-0.295135 0.675373 0.269950 0 127 127
0.435117 0.797341 0.197190 127 0 127
0.547706 -0.412080 0.226502 76 0 153
0.196576 -0.017780 0.130226 153 0 76
-0.349818 -0.388507 -0.173383 76 0 153
-0.283648 -0.284432 0.252270 0 127 127
-0.562962 0.556406 0.128612 255 0 0
0.054089 -0.412080 0.166762 76 0 153
0.568553 0.659911 -0.252998 0 0 255
0.289967 -0.806381 0.201183 127 127 0
-0.413457 0.420074 -0.273708 0 255 0
0.115087 0.376521 0.140893 204 51 127
-0.562962 0.322523 -0.028298 255 0 0
-0.562962 -0.276517 -0.016334 255 0 0
0.550873 0.586187 -0.206111 0 0 255
-0.562962 0.467956 -0.178977 255 0 0
-0.562962 0.328559 0.216947 255 0 0
0.055493 -0.319215 -0.267814 0 255 0
-0.545282 -0.517060 -0.084341 255 0 0
-0.085317 0.731748 -0.291388 76 0 153
-0.545282 -0.405160 -0.248203 76 0 153
0.497961 0.701945 -0.267814 0 255 0
-0.305454 -0.666581 -0.267814 0 255 0
0.476941 -0.388507 0.194154 76 0 153
0.412093 -0.782807 0.097262 127 127 0
0.568553 0.502134 -0.270227 0 0 255
0.535795 0.018341 -0.267814 0 255 0
-0.169732 0.206616 0.252270 0 127 127
-0.167033 0.376521 0.013175 204 51 127
0.485738 0.773768 0.235089 127 0 127
-0.444653 0.773768 -0.085083 127 0 127
0.224171 0.005794 -0.097250 153 0 76
0.359417 -0.315503 0.269950 153 0 76
0.523968 -0.587008 -0.273708 0 255 0
0.451014 -0.017945 -0.273708 153 76 0
0.189664 0.622642 0.252270 153 0 76
-0.562962 -0.550848 -0.116409 255 0 0
0.568553 0.565633 0.228980 0 0 255
-0.545282 0.319290 -0.158068 255 0 0
0.478823 0.517551 -0.273708 0 255 0
0.039316 -0.782807 -0.080166 127 127 0
-0.316036 -0.806381 -0.170667 127 127 0
-0.089913 -0.528208 -0.273708 0 255 0
-0.446185 0.376521 -0.079352 204 51 127
-0.293103 0.797341 -0.117989 127 0 127
0.568553 -0.372442 -0.069513 0 0 255
0.135762 -0.782807 -0.042658 127 127 0
-0.187600 -0.017780 0.030916 153 0 76
-0.004531 -0.398830 0.244903 0 127 127
-0.044444 -0.017780 -0.193552 153 0 76
0.369606 -0.388507 0.098244 76 0 153
0.445011 0.713610 0.269950 153 0 76
0.464827 0.376521 -0.091588 204 51 127
-0.014036 0.037400 -0.267814 0 255 0
0.054047 -0.594091 -0.273708 0 255 0
0.434169 -0.298760 0.252270 153 0 76
0.470853 -0.412080 0.100409 76 0 153
-0.093983 0.376521 0.101596 204 51 127
-0.221015 0.797341 -0.228190 127 0 127
-0.228193 -0.442018 0.269950 0 127 127
0.031439 -0.270928 0.269950 153 0 76
0.490681 0.423488 0.252270 153 0 76
-0.545282 -0.533341 0.088700 255 0 0
0.170608 -0.806381 -0.146174 127 127 0
0.119915 -0.709650 -0.291388 153 0 76
-0.491385 0.185502 -0.267814 0 255 0
-0.067387 -0.017780 -0.006702 153 0 76
0.293932 -0.782807 -0.053603 127 127 0
-0.069899 -0.717216 0.252270 0 127 127
0.550873 -0.236282 0.216368 0 0 255
0.234825 -0.017780 0.108958 153 0 76
0.006675 0.773768 -0.115397 127 0 127
-0.497945 0.635290 0.269950 0 127 127
0.482735 0.367635 0.269950 153 0 76
-0.562962 -0.622810 0.067288 255 0 0
0.518090 -0.349980 0.269950 153 0 76
-0.545282 -0.662847 -0.089679 255 0 0
0.116310 -0.782807 -0.115286 127 127 0
0.198916 -0.806381 0.006761 127 127 0
0.310083 0.376521 -0.226501 204 51 127
-0.003107 -0.782807 -0.287798 127 127 0
0.191093 0.797341 0.159708 127 0 127
0.423855 -0.017780 -0.160149 153 0 76
0.479168 -0.806381 -0.153405 127 127 0
0.108073 -0.806381 -0.189073 127 127 0
-0.562962 0.704701 -0.011198 255 0 0
-0.562962 0.149484 0.191413 255 0 0
-0.164098 -0.412080 -0.215482 76 0 153
-0.167866 -0.673365 -0.291388 0 255 0
-0.404021 0.389263 -0.273708 0 255 0
0.404140 0.032907 0.269950 153 0 76
0.005042 0.075392 0.252270 0 127 127
0.568553 0.236474 0.192204 0 0 255
0.502474 -0.782807 0.162236 127 127 0
-0.334141 -0.017780 -0.151654 153 0 76
-0.382137 0.376521 -0.049744 204 51 127
-0.542080 -0.017780 0.043396 255 0 0
-0.370865 -0.782807 0.053415 127 127 0
-0.218420 -0.388507 -0.065650 76 0 153
0.031006 0.392085 0.269950 153 0 76
-0.007077 -0.806381 0.260376 0 127 127
0.155417 -0.388507 -0.160730 76 0 153
0.249583 0.773768 -0.099316 127 0 127
-0.314602 -0.094148 0.269950 0 127 127
0.157360 0.797341 0.065548 127 0 127
-0.203456 -0.782807 0.139007 127 127 0
0.065649 -0.017780 0.146091 153 0 76
0.137867 -0.412080 -0.239821 76 0 153
-0.409820 -0.388507 -0.159380 76 0 153
0.439855 0.797341 0.231442 127 0 127
-0.091387 0.797341 -0.251994 127 0 127
0.228255 0.733589 -0.291388 76 0 153
-0.220315 0.773768 -0.252938 127 0 127
0.550873 0.561605 0.018363 0 0 255
0.568553 0.286403 -0.012085 0 0 255
0.568553 0.447372 -0.157021 0 0 255
-0.562962 0.036739 0.081806 255 0 0
0.192120 -0.806381 -0.246145 127 127 0
-0.184607 -0.786195 0.250797 0 127 127
-0.401334 0.376521 -0.170750 204 51 127
0.094705 0.187337 -0.267814 0 255 0
-0.061592 0.773768 -0.061177 127 0 127
-0.095749 0.773768 -0.169669 127 0 127
0.443968 -0.759451 -0.267814 153 0 76
-0.094104 -0.782807 -0.104898 127 127 0
-0.562962 0.457912 0.184920 255 0 0
-0.561489 -0.307759 0.261334 0 127 127
-0.494279 0.021021 -0.267814 153 0 76
-0.401849 0.797341 0.200081 127 0 127
0.005894 0.702191 0.269950 0 127 127
0.568553 -0.475869 0.021600 0 0 255
-0.084654 0.372534 0.252270 204 51 127
0.554226 -0.806381 0.239642 0 0 255
0.266163 -0.429167 0.252270 153 0 76
0.309754 -0.003965 -0.267814 0 255 0
-0.545282 -0.649432 -0.166243 255 0 0
0.063844 0.796257 -0.291388 76 0 153
-0.201818 0.797341 0.125457 127 0 127
-0.545282 0.385703 0.205973 255 0 0
0.538688 0.005794 0.095268 0 0 255
-0.397021 0.335144 -0.273708 0 255 0
-0.399558 0.005794 -0.216525 153 0 76
0.568553 0.467288 0.000771 0 0 255
0.143248 -0.782807 0.054758 127 127 0
0.235737 0.773768 0.246802 127 0 127
-0.129213 -0.412080 0.061827 76 0 153
0.537515 0.773768 -0.049185 127 0 127
0.074924 0.502676 -0.273708 0 255 0
-0.166489 -0.782807 -0.120802 127 127 0
-0.562962 0.433665 -0.109795 255 0 0
0.502395 0.376521 -0.256707 0 255 0
-0.517581 0.631642 -0.267814 0 255 0
0.215371 0.190476 0.252270 153 0 76
0.561542 0.797341 0.064376 0 0 255
0.210819 -0.782807 0.066269 127 127 0
-0.562962 -0.589787 -0.008979 255 0 0
0.351839 -0.017780 0.059169 153 0 76
0.156883 -0.017780 -0.256904 153 76 0
-0.474463 -0.002254 -0.291388 153 76 0
0.049365 -0.388507 -0.247308 76 0 153
-0.545282 -0.284374 0.053218 255 0 0
0.299325 -0.017780 0.163487 153 0 76
0.113633 -0.576268 -0.267814 0 255 0
-0.103699 0.146303 0.269950 0 127 127
-0.244764 0.762407 0.269950 127 0 127
0.393044 0.400094 0.046677 204 51 127
0.059274 -0.782807 -0.203000 127 127 0
0.435976 -0.782807 0.042054 127 127 0
0.059126 0.012593 0.269950 153 0 76
0.297746 0.400094 0.197400 204 51 127
0.336054 0.773768 0.215733 127 0 127
-0.477416 0.797341 -0.004414 127 0 127
0.149820 -0.356260 0.269950 153 0 76
-0.358111 -0.172266 -0.267814 0 255 0
0.011203 0.005794 -0.100306 153 0 76
0.257797 -0.017780 0.173480 153 0 76
0.044682 0.400094 0.224589 204 51 127
0.550873 -0.672437 -0.224133 0 0 255
-0.156664 0.376521 -0.097881 204 51 127
0.441264 0.400094 0.029197 204 51 127
0.145167 -0.071191 0.269950 153 0 76
-0.440526 -0.388507 0.159002 76 0 153
0.009342 -0.285901 -0.267814 0 255 0
-0.241595 -0.017780 -0.177834 153 0 76
-0.460895 -0.412080 0.020664 76 0 153
0.000560 -0.412080 -0.221993 76 0 153
0.292670 -0.388507 -0.229956 76 0 153
0.452174 -0.782807 0.012652 127 127 0
-0.545282 0.013407 -0.267407 255 0 0
0.376322 0.012061 -0.291388 153 76 0
-0.562962 -0.368652 -0.205280 255 0 0
0.065593 -0.355413 0.252270 153 0 76
0.065113 -0.196955 0.252270 153 0 76
-0.144470 0.005794 0.225774 153 0 76
-0.019256 0.643942 0.252270 0 127 127
0.550873 -0.057619 0.145813 0 0 255
0.346382 -0.731744 0.252270 153 0 76
-0.308140 -0.412080 0.168676 76 0 153
0.113249 -0.318420 0.269950 153 0 76
-0.332949 0.704758 -0.267814 0 255 0
-0.300552 0.773768 -0.179845 127 0 127
0.229205 0.773768 -0.026561 127 0 127
0.378449 0.740729 -0.267814 76 0 153
0.141464 -0.388507 -0.189431 76 0 153
0.514652 0.664849 0.269950 153 0 76
0.465102 0.005794 -0.083873 153 0 76
-0.201492 -0.017780 -0.091618 153 0 76
0.550873 -0.797205 0.177005 0 0 255
-0.158971 0.773768 -0.158681 127 0 127
-0.469374 -0.281620 0.252270 0 127 127
0.553791 0.000064 0.269950 153 0 76
-0.237258 -0.412080 -0.048355 76 0 153
0.568553 0.213891 -0.048441 0 0 255
-0.535976 -0.017780 -0.184763 153 0 76
-0.121087 -0.210998 0.252270 0 127 127
0.143886 0.146204 0.252270 153 0 76
-0.207819 -0.388507 -0.243191 76 0 153
0.310312 -0.806381 -0.010627 127 127 0
-0.304478 -0.782807 -0.014521 127 127 0
-0.562962 -0.284599 -0.175893 255 0 0
-0.545282 0.183830 0.067087 255 0 0
-0.057563 -0.806381 0.127647 127 127 0
0.121803 -0.017780 0.129893 153 0 76
-0.027061 0.797341 0.213322 127 0 127
-0.016551 -0.265951 0.269950 0 127 127
0.371263 0.797341 0.123672 127 0 127
0.060644 0.797341 -0.228975 127 0 127
0.110861 0.005794 0.146817 153 0 76
0.568553 0.312546 0.045200 0 0 255
0.449895 0.773768 -0.241417 127 0 127
0.354657 0.797341 0.239022 153 0 76
0.302384 -0.017780 0.195241 153 0 76
0.069126 0.437955 0.269950 153 0 76
-0.545282 -0.731775 -0.247009 255 0 0
0.077786 0.210959 -0.273708 0 255 0
-0.296371 0.348429 0.269950 0 127 127
0.394631 0.773768 -0.089471 127 0 127
0.550873 -0.218948 0.129818 0 0 255
0.196756 0.350057 0.269950 153 0 76
0.294362 0.376521 -0.119523 204 51 127
0.310628 0.252275 0.269950 153 0 76
0.386470 -0.388507 -0.080366 76 0 153
0.550873 0.130567 0.051799 0 0 255
0.191657 -0.458618 0.252270 153 0 76
0.411094 -0.782807 0.211279 127 127 0
-0.374412 0.376521 -0.149347 204 51 127
0.098958 -0.388507 -0.161231 76 0 153
0.090314 0.797341 -0.153525 127 0 127
0.446217 0.797341 0.127108 127 0 127
0.061848 -0.559967 0.269950 153 0 76
-0.342470 0.797341 0.050026 127 0 127
0.483000 -0.418336 0.269950 153 0 76
-0.058637 -0.296099 0.269950 0 127 127
-0.167269 -0.198085 0.269950 0 127 127
-0.265801 0.376521 0.072270 204 51 127
0.568553 0.458865 0.168073 0 0 255
0.221903 -0.147877 0.269950 153 0 76
-0.435605 -0.782807 -0.044630 127 127 0
-0.148715 -0.020975 0.269950 0 127 127
0.475973 -0.463478 0.269950 153 0 76
-0.448155 -0.651529 0.252270 0 127 127
-0.079859 -0.806381 0.188612 127 127 0
0.050209 0.642815 0.269950 153 0 76
0.051243 -0.782807 0.047066 127 127 0
-0.110656 0.005794 0.164803 153 0 76
-0.109386 -0.782807 0.192273 127 127 0
-0.046146 0.005794 -0.096869 153 0 76
0.220727 -0.782807 0.149723 127 127 0
-0.241185 0.552268 0.269950 0 127 127
-0.126510 0.773768 0.018257 127 0 127
0.010017 -0.492887 0.269950 153 0 76
0.443798 -0.806381 0.142653 127 127 0
0.305776 0.435958 0.252270 153 0 76
-0.455176 -0.412080 0.212831 76 0 153
-0.147225 0.773768 0.075120 127 0 127
-0.387161 -0.664941 -0.286970 153 0 76
0.031168 0.400094 -0.127020 204 51 127
-0.215202 0.004569 -0.291388 153 76 0
-0.098853 0.484840 -0.267814 0 255 0
-0.038384 0.376521 -0.094135 204 51 127
0.491237 -0.388507 -0.098298 76 0 153
0.220553 0.489224 0.252270 153 0 76
-0.387402 -0.738797 -0.291388 0 255 0
0.550873 -0.680889 0.131932 0 0 255
0.506433 0.400094 -0.010528 204 51 127
0.469299 0.255715 -0.273708 0 255 0
0.041199 -0.388507 0.211987 76 0 153
-0.068413 -0.412080 0.206690 76 0 153
-0.505719 -0.252785 0.269950 0 127 127
0.546049 0.773768 0.128377 127 0 127
-0.276007 -0.218064 0.252270 0 127 127
-0.456211 -0.412080 -0.222389 76 0 153
0.550873 -0.740947 0.236819 0 0 255
-0.441824 0.740377 -0.291388 76 0 153
-0.553899 0.263523 -0.291388 255 0 0
-0.530953 0.059444 -0.267814 255 0 0
0.095160 -0.412080 -0.252309 76 0 153
-0.073668 0.304238 0.252270 0 127 127
-0.236730 0.400094 0.167975 204 51 127
0.130066 0.766621 0.269950 153 0 76
-0.338554 0.376521 0.083558 204 51 127
-0.491085 0.376521 -0.028825 204 51 127
-0.545282 -0.532431 -0.170151 255 0 0
0.384417 -0.412080 -0.217842 76 0 153
-0.103405 0.773768 -0.289828 76 0 153
-0.009941 0.400094 0.130274 204 51 127
-0.374096 -0.412080 -0.186304 76 0 153
0.056279 -0.500728 -0.267814 0 255 0
0.187413 0.376521 0.136684 204 51 127
-0.529211 -0.412080 -0.066385 76 0 153
0.158007 -0.697428 -0.291388 153 0 76
0.008519 0.280450 0.252270 0 127 127
0.280628 -0.238144 0.252270 153 0 76
-0.346988 0.005794 -0.243008 153 0 76
-0.174760 0.721830 -0.291388 76 0 153
0.178776 0.400094 0.110478 204 51 127
0.250879 -0.806381 0.163359 127 127 0
0.388821 0.327296 0.252270 153 0 76
-0.029031 -0.388507 0.165390 76 0 153
0.568553 -0.707912 -0.018711 0 0 255
0.053972 -0.708334 0.269950 153 0 76
-0.377978 0.508063 -0.267814 0 255 0
0.219625 0.005794 -0.003355 153 0 76
-0.136021 -0.806381 -0.159579 127 127 0
0.225602 -0.412080 0.091958 76 0 153
-0.114593 0.029375 -0.291388 153 76 0
-0.545282 -0.374274 -0.078834 76 0 153
-0.562962 0.752361 -0.129806 255 0 0
-0.562962 -0.030715 0.080102 255 0 0
-0.488310 0.773768 0.175316 127 0 127
0.433676 0.400094 -0.196562 204 51 127
-0.045719 -0.782807 -0.165155 127 127 0
0.341877 -0.806381 0.031605 127 127 0
-0.530995 0.773768 -0.074368 127 0 127
0.379505 0.678915 0.252270 153 0 76
-0.545282 0.347061 0.059800 255 0 0
-0.562962 0.652073 -0.119159 255 0 0
-0.235925 -0.087789 0.269950 0 127 127
0.470867 0.624857 0.269950 153 0 76
-0.273798 -0.129933 -0.273708 0 255 0
0.322111 0.773768 0.081491 127 0 127
0.002666 0.773768 0.004304 127 0 127
0.156348 0.773768 0.086233 127 0 127
0.483608 -0.791660 -0.291388 127 127 0
0.014848 0.476143 -0.273708 0 255 0
-0.401626 -0.765731 0.252270 0 127 127
-0.287841 -0.270380 -0.267814 0 255 0
0.445655 -0.806381 -0.236167 127 127 0
-0.236823 0.388411 0.269950 0 127 127
0.550873 0.719137 0.248294 0 0 255
-0.545282 0.264043 0.041803 255 0 0
0.459103 -0.806381 0.058697 127 127 0
-0.534569 -0.388507 0.164245 76 0 153
-0.109843 0.773768 0.069371 127 0 127
0.396011 0.559005 0.252270 153 0 76
-0.310500 -0.412080 -0.232569 76 0 153
0.059912 0.741892 0.252270 153 0 76
-0.562962 0.379383 -0.127668 255 0 0
-0.293366 -0.806381 0.138829 127 127 0
-0.521073 0.773768 -0.142593 127 0 127
0.174623 0.516353 0.269950 153 0 76
0.375602 0.376521 0.008251 204 51 127
0.086809 0.391612 0.244903 204 51 127
0.548233 -0.017780 -0.106043 0 0 255
-0.545282 0.024028 0.133921 255 0 0
-0.419970 -0.699755 0.252270 0 127 127
-0.436274 -0.049328 0.269950 0 127 127
-0.362778 -0.310332 -0.273708 0 255 0
0.423086 -0.731582 0.252270 153 0 76
-0.014095 0.212400 -0.273708 0 255 0
-0.096329 0.005794 -0.021603 153 0 76
0.550873 0.265994 -0.069677 0 0 255
-0.047400 0.773768 -0.265803 76 0 153
-0.144236 0.351068 0.252270 0 127 127
0.550873 0.210634 -0.226345 0 0 255
0.550873 -0.696604 0.104726 0 0 255
0.040354 -0.017780 0.073900 153 0 76
0.041039 0.376521 -0.215176 204 51 127
-0.403937 -0.017780 -0.174792 153 0 76
0.381064 -0.806381 -0.261885 127 127 0
-0.562962 0.467733 0.115006 255 0 0
0.146977 0.376521 0.065933 204 51 127
0.027176 0.747960 -0.273708 0 255 0
0.387667 0.005794 -0.133203 153 0 76
-0.427174 -0.412080 -0.162584 76 0 153
-0.098166 0.400094 0.237930 204 51 127
0.425520 0.234928 -0.267814 0 255 0
-0.049866 -0.412080 -0.000400 76 0 153
0.032297 0.376521 0.086768 204 51 127
-0.501541 0.773768 -0.177890 127 0 127
-0.096140 -0.017780 0.210297 153 0 76
0.250083 0.773768 0.216327 127 0 127
-0.507927 -0.388507 -0.004217 76 0 153
0.540630 -0.152046 0.252270 153 0 76
0.213479 0.639843 0.252270 153 0 76
0.128839 0.028775 0.252270 153 0 76
0.568553 -0.275628 -0.014490 0 0 255
0.286343 0.797341 0.063575 127 0 127
0.069246 0.797341 -0.182134 127 0 127
-0.447740 0.634123 0.269950 0 127 127
0.202646 -0.720116 0.269950 153 0 76
-0.441306 -0.782807 -0.100357 127 127 0
0.453005 -0.412080 0.236858 76 0 153
-0.276159 0.748988 -0.291388 76 0 153
0.248785 0.400094 -0.210030 204 51 127
0.131025 -0.017780 0.091671 153 0 76
0.501885 0.400094 -0.180029 204 51 127
0.064382 -0.133242 -0.267814 0 255 0
0.420461 0.383981 0.244903 204 51 127
0.400028 -0.157124 -0.267814 0 255 0
0.568553 -0.533252 -0.083952 0 0 255
0.568553 -0.294767 -0.226242 0 0 255
0.550873 -0.452985 0.117316 0 0 255
-0.545282 0.064211 -0.173405 255 0 0
0.320399 -0.412080 -0.265082 76 0 153
-0.417596 -0.806381 -0.287701 127 127 0
0.558977 -0.806381 -0.054154 127 127 0
0.515051 -0.270863 0.252270 153 0 76
0.203029 -0.412080 0.196761 76 0 153
-0.323302 0.597207 0.269950 0 127 127
0.238003 -0.042393 -0.273708 153 76 0
0.465224 0.400094 -0.050167 204 51 127
-0.562962 -0.593832 0.089551 255 0 0
-0.562962 0.279039 -0.103912 255 0 0
-0.061393 0.797341 -0.166659 127 0 127
-0.189516 0.317603 0.252270 0 127 127
-0.178007 -0.017780 -0.237441 153 0 76
-0.414067 -0.755015 -0.291388 153 0 76
0.283506 0.694367 0.269950 153 0 76
-0.506973 -0.418153 -0.267814 76 0 153
0.150074 0.005794 -0.191198 153 0 76
-0.448453 -0.388507 0.189112 76 0 153
0.429761 0.769304 -0.267814 0 255 0
-0.077928 0.005794 -0.100462 153 0 76
-0.084458 0.376521 0.074136 204 51 127
0.384036 -0.017780 0.137188 153 0 76
-0.351917 -0.405290 -0.273708 76 0 153
0.031704 -0.017780 -0.037841 153 0 76
0.029140 0.650590 0.252270 153 0 76
0.484619 0.334377 0.269950 153 0 76
-0.339832 0.797341 -0.188392 127 0 127
-0.301161 -0.782807 0.237477 127 127 0
-0.545282 0.112414 -0.134966 255 0 0
0.365656 0.005794 0.031980 153 0 76
-0.397035 0.049177 -0.291388 153 76 0
0.375396 -0.359051 0.269950 153 0 76
0.008121 0.400094 -0.091407 204 51 127
0.225481 -0.412080 -0.244433 76 0 153
0.328460 -0.388507 -0.084600 76 0 153
0.484773 -0.017780 -0.267237 0 255 0
0.568553 -0.439722 0.000352 0 0 255
0.387613 0.402933 -0.273708 204 51 127
-0.252666 0.005794 0.136508 153 0 76
-0.280368 0.376521 0.104986 204 51 127
-0.446403 -0.597282 0.269950 0 127 127
0.328575 -0.782807 -0.113036 127 127 0
-0.329797 -0.026891 -0.273708 153 0 76
-0.562962 -0.140398 -0.048955 255 0 0
0.527072 -0.412080 0.120750 76 0 153
-0.008200 0.005794 -0.266796 0 255 0
0.051587 0.352119 -0.273708 0 255 0
-0.562962 -0.189962 -0.044849 255 0 0
-0.274943 -0.412080 0.177974 76 0 153
-0.562962 0.397787 0.116915 255 0 0
-0.134255 -0.454189 -0.273708 0 255 0
-0.545282 0.316026 0.168567 255 0 0
0.194121 0.253016 -0.267814 0 255 0
-0.163746 -0.332433 0.252270 0 127 127
-0.562962 -0.174987 0.234761 255 0 0
0.164800 0.066396 0.269950 153 0 76
-0.203823 -0.043638 -0.267814 0 255 0
0.447425 -0.455927 -0.267814 0 255 0
-0.292290 0.005794 0.198799 153 0 76
-0.265581 0.737050 -0.267814 0 255 0
-0.530356 -0.388507 0.108340 255 0 0
0.541514 0.243891 0.252270 0 0 255
0.478465 -0.388507 0.152430 76 0 153
-0.064234 -0.654530 -0.273708 0 255 0
-0.545282 -0.277762 -0.285091 255 0 0
0.529262 0.376521 0.136632 204 51 127
0.352552 0.634783 0.252270 153 0 76
-0.078767 0.797341 -0.074509 127 0 127
0.568553 -0.551431 -0.269727 0 0 255
-0.545282 -0.515843 0.239126 255 0 0
0.320916 -0.052589 0.269950 153 0 76
0.047134 -0.388507 0.116467 76 0 153
-0.014503 -0.017780 0.227059 153 0 76
0.269796 -0.135546 0.252270 153 0 76
0.151300 0.376521 0.142448 204 51 127
0.116876 -0.806381 0.163728 127 127 0
-0.494671 0.398739 0.244903 204 51 127
0.155239 -0.507058 0.269950 153 0 76
0.140549 0.451076 0.252270 153 0 76
-0.530432 0.379011 0.269950 0 127 127
-0.512000 -0.414528 0.252270 0 127 127
0.219197 0.773768 -0.205393 127 0 127
0.568553 -0.327761 0.049758 0 0 255
-0.508942 0.797341 0.092538 127 0 127
0.550873 0.550953 0.092931 0 0 255
-0.095557 0.226590 0.252270 0 127 127
0.568553 -0.164218 0.140693 0 0 255
0.458124 -0.782807 -0.198107 127 127 0
-0.334075 -0.165883 0.269950 0 127 127
0.465439 -0.712316 -0.291388 0 255 0
-0.125830 0.797341 0.219221 127 0 127
-0.562962 0.312693 -0.262110 255 0 0
0.191186 -0.782807 0.190154 127 127 0
0.568553 -0.529944 0.106914 0 0 255
-0.369006 -0.137536 -0.267814 0 255 0
0.083646 -0.275805 -0.267814 0 255 0
0.326795 -0.529297 0.269950 153 0 76
-0.407656 0.578454 -0.267814 0 255 0
-0.322059 -0.017780 0.066952 153 0 76
0.304999 -0.806381 -0.157151 127 127 0
-0.048120 -0.017780 -0.051095 153 0 76
0.205350 0.376521 0.082311 204 51 127
-0.562962 0.066867 -0.205081 255 0 0
0.113950 -0.782807 -0.019659 127 127 0
-0.562962 -0.493505 0.175626 255 0 0
0.366913 -0.042657 -0.267814 153 76 0
0.568553 0.149877 -0.009101 0 0 255
-0.042511 -0.591096 0.252270 0 127 127
-0.143699 0.084268 0.269950 0 127 127
0.069793 -0.388507 0.047369 76 0 153
0.063441 0.275263 0.269950 153 0 76
-0.010413 0.376521 -0.116129 204 51 127
-0.498987 -0.782807 -0.022819 127 127 0
-0.387865 -0.782807 -0.226429 127 127 0
-0.435262 0.528033 -0.273708 0 255 0
0.459872 0.049300 0.252270 153 0 76
0.550873 -0.336448 -0.084080 0 0 255
0.527334 -0.198460 0.252270 153 0 76
-0.314418 -0.412080 -0.201092 76 0 153
0.162433 0.065645 -0.267814 0 255 0
-0.042463 0.400094 -0.241807 204 51 127
0.465441 0.761214 -0.267814 127 0 127
-0.097306 -0.017780 -0.165559 153 0 76
-0.168878 0.051532 -0.273708 0 255 0
0.568553 -0.217944 0.161716 0 0 255
-0.490765 0.056282 0.269950 0 127 127
-0.407950 -0.806381 0.077114 127 127 0
-0.262323 0.773768 -0.101132 127 0 127
-0.280792 -0.736357 0.252270 0 127 127
0.464474 0.797341 0.090469 127 0 127
-0.007101 -0.686817 0.269950 0 127 127
-0.043419 0.113410 -0.273708 0 255 0
0.459102 -0.048160 -0.267814 153 76 0
-0.069131 0.773768 -0.117727 127 0 127
0.408109 0.400094 0.215726 204 51 127
0.183588 0.376521 0.235216 204 51 127
0.178918 -0.563193 0.252270 153 0 76
-0.304533 0.376521 0.020127 204 51 127
-0.069764 0.682051 -0.291388 76 0 153
0.475782 0.169254 0.252270 153 0 76
-0.417272 0.376521 -0.094761 204 51 127
0.257818 -0.096763 0.269950 153 0 76
0.277472 -0.659463 -0.267814 0 255 0
0.566957 -0.196949 0.269950 153 0 76
-0.545282 0.596977 0.126028 255 0 0
0.470023 0.005794 -0.137747 153 0 76
0.012960 -0.373765 0.252270 0 127 127
0.083348 -0.388507 -0.205241 76 0 153
-0.562962 -0.152509 -0.235262 255 0 0
0.496167 0.089478 0.252270 153 0 76
0.137578 -0.384392 -0.273708 0 255 0
0.045927 0.247557 0.299405 76 0 153
-0.445570 -0.619935 0.252270 0 127 127
-0.461686 -0.388507 -0.245152 76 0 153
-0.202525 -0.253311 0.269950 0 127 127
-0.155708 0.005794 0.130091 153 0 76
0.525941 -0.412080 -0.090242 76 0 153
0.303455 -0.553299 0.252270 153 0 76
0.113001 0.773768 -0.242140 127 0 127
-0.326232 -0.178751 -0.273708 0 255 0
0.550873 0.672994 -0.070085 0 0 255
-0.450458 0.797341 -0.114121 127 0 127
0.550873 -0.255956 -0.181311 0 0 255
0.425213 -0.388507 -0.127778 76 0 153
0.218306 -0.274575 -0.273708 0 255 0
-0.166445 -0.782807 0.028345 127 127 0
0.371374 0.306452 0.269950 153 0 76
0.188131 0.797341 -0.023958 127 0 127
-0.562962 0.526632 -0.050648 255 0 0
0.138902 -0.736966 -0.267814 153 0 76
0.108274 0.734101 -0.291388 76 0 153
0.568553 0.006788 -0.071670 0 0 255
-0.545282 -0.276572 -0.202887 255 0 0
-0.030874 -0.000293 0.244903 0 127 127
0.550873 -0.206057 0.213471 0 0 255
0.099597 0.486522 0.252270 153 0 76
-0.417677 -0.284528 -0.267814 0 255 0
0.486761 0.376521 -0.025014 204 51 127
0.351447 -0.782807 -0.028043 127 127 0
0.323838 0.601447 0.252270 153 0 76
-0.392219 0.797341 -0.208360 127 0 127
0.369992 0.005794 -0.028215 153 0 76
-0.347603 0.789762 -0.291388 127 0 127
0.469710 0.085077 -0.267814 0 255 0
-0.469825 0.376521 0.228688 204 51 127
-0.346173 -0.388507 -0.142415 76 0 153
0.446848 0.170127 0.269950 153 0 76
-0.210811 0.376521 -0.245483 204 51 127
0.314860 -0.511369 -0.273708 0 255 0
-0.540354 -0.656036 0.269950 0 127 127
0.421452 0.050990 0.252270 153 0 76
-0.562962 -0.734920 -0.161109 255 0 0
-0.561489 -0.155505 0.263522 0 127 127
0.286927 0.797341 -0.156344 127 0 127
-0.063456 -0.782807 -0.194333 127 127 0
0.177925 -0.647893 -0.273708 0 255 0
0.096302 0.773768 0.062693 127 0 127
-0.076894 -0.019349 -0.273708 0 255 0
0.407076 0.769298 -0.291388 127 0 127
0.550873 -0.398142 -0.038695 76 0 153
0.550873 0.371456 -0.047724 0 0 255
0.550873 0.534290 0.116868 0 0 255
0.410797 0.226948 0.269950 153 0 76
-0.562962 0.740517 0.145426 255 0 0
0.289813 -0.017780 -0.054562 153 0 76
-0.007850 -0.086969 -0.267814 0 255 0
-0.019199 -0.580572 -0.273708 0 255 0
-0.332531 0.219769 -0.267814 0 255 0
0.291384 -0.057853 0.252270 153 0 76
0.510974 0.005794 0.219450 153 0 76
0.278063 0.744880 0.269950 153 0 76
-0.504146 -0.412080 -0.144725 76 0 153
0.261973 -0.782807 0.002253 127 127 0
0.568553 -0.638113 -0.162698 0 0 255
-0.335378 -0.388507 -0.055547 76 0 153
0.213605 -0.326762 0.269950 153 0 76
0.302235 -0.412080 -0.163593 76 0 153
-0.012236 0.574623 0.252270 0 127 127
-0.162546 0.376521 -0.227285 204 51 127
-0.160449 0.773768 -0.070686 127 0 127
-0.545282 -0.480183 0.022960 255 0 0
0.568553 0.060495 0.178940 0 0 255
0.315560 0.400094 0.122244 204 51 127
0.176251 0.773768 0.061938 127 0 127
0.074613 -0.578036 0.252270 153 0 76
0.568553 -0.076743 -0.172847 0 0 255
0.182254 -0.782807 0.055681 127 127 0
0.307717 -0.574021 -0.267814 0 255 0
-0.562962 0.217811 -0.073129 255 0 0
0.107404 0.797341 -0.058182 127 0 127
-0.245769 0.797341 0.226191 127 0 127
0.059237 -0.492588 0.252270 153 0 76
-0.054812 0.400094 -0.045043 204 51 127
-0.486743 -0.701159 -0.273708 0 255 0
-0.202157 0.400094 0.132447 204 51 127
0.285645 0.128565 0.252270 153 0 76
0.135668 -0.550571 -0.273708 0 255 0
0.530430 -0.388507 0.153323 76 0 153
0.317312 -0.806381 -0.278643 127 127 0
0.133414 0.477940 -0.273708 0 255 0
0.383731 -0.488188 0.252270 153 0 76
-0.231025 0.584268 -0.273708 0 255 0
-0.301022 0.767063 -0.291388 76 0 153
0.568553 0.475089 -0.195519 0 0 255
0.016485 0.119342 -0.267814 0 255 0
-0.256907 -0.782807 0.188144 127 127 0
0.460274 0.507903 0.269950 153 0 76
-0.022966 -0.249450 -0.267814 0 255 0
-0.545282 -0.608669 -0.228049 255 0 0
-0.562962 0.542095 0.038155 255 0 0
0.352801 0.005794 -0.085834 153 0 76
0.550873 0.184143 -0.285804 0 0 255
-0.562962 -0.790445 -0.094485 255 0 0
0.188506 -0.017780 -0.208313 153 0 76
-0.321225 -0.412080 0.062598 76 0 153
-0.004808 0.005794 -0.210301 153 0 76
-0.338485 0.678185 0.269950 0 127 127
-0.041772 -0.493728 -0.267814 0 255 0
-0.269433 -0.780791 0.252270 0 127 127
-0.535273 -0.806381 0.068369 127 127 0
-0.464747 -0.017780 0.000106 153 0 76
0.501607 -0.170907 -0.273708 0 255 0
0.142840 0.103636 0.269950 153 0 76
0.217400 -0.417018 0.269950 153 0 76
0.177055 -0.806381 0.176582 127 127 0
-0.127757 0.376521 -0.188796 204 51 127
-0.309716 0.400094 0.063527 204 51 127
0.281103 0.376521 0.242989 204 51 127
-0.182957 0.376521 0.161420 204 51 127
0.568553 -0.176186 0.060852 0 0 255
0.550873 0.341660 -0.112217 0 0 255
0.445320 -0.298516 -0.267814 0 255 0
0.550873 -0.281616 0.105136 0 0 255
-0.385702 -0.017780 -0.035769 153 0 76
0.315943 0.376521 -0.254035 204 51 127
0.550873 0.736425 0.004350 0 0 255
-0.103299 0.773768 -0.079301 127 0 127
-0.545282 -0.354234 -0.021550 255 0 0
0.179764 -0.177481 0.269950 153 0 76
-0.306759 -0.700710 -0.267814 0 255 0
0.444126 0.797341 0.008636 127 0 127
-0.127271 -0.358962 -0.273708 0 255 0
-0.468227 0.797341 0.082009 127 0 127
0.191193 -0.564966 -0.267814 0 255 0
0.068153 0.376521 -0.156934 204 51 127
0.550873 -0.545292 0.188586 0 0 255
-0.102378 -0.533988 0.269950 0 127 127
0.175148 -0.017780 -0.003367 153 0 76
-0.464664 0.773768 0.156632 127 0 127
0.550873 -0.355001 0.185035 0 0 255
-0.525122 -0.782807 -0.136426 127 127 0
0.524241 -0.782807 -0.265226 127 127 0
-0.140083 -0.468518 0.252270 0 127 127
0.073365 0.400094 -0.210912 204 51 127
0.385721 0.151872 0.252270 153 0 76
0.550873 -0.203144 0.023590 0 0 255
0.568553 -0.667651 0.167923 0 0 255
-0.496234 0.323375 -0.273708 0 255 0
-0.166609 0.797341 0.170851 127 0 127
-0.066783 -0.063453 -0.289617 153 76 0
0.509856 0.797341 -0.089544 127 0 127
0.091724 -0.017780 0.062413 153 0 76
0.045580 0.400094 -0.163624 204 51 127
0.550873 0.080629 0.114075 0 0 255
-0.222055 -0.412080 0.029290 76 0 153
0.568553 -0.100469 0.203817 0 0 255
-0.156298 0.727986 0.269950 0 127 127
-0.216207 0.005794 -0.075721 153 0 76
0.414547 -0.806381 0.237438 127 127 0
-0.076984 -0.388507 0.020205 76 0 153
-0.144120 0.666357 0.269950 0 127 127
0.429980 -0.545744 0.252270 153 0 76
-0.475276 0.701118 0.252270 0 127 127
-0.228691 0.797341 0.152822 127 0 127
0.410423 0.773768 -0.034927 127 0 127
0.494626 -0.333933 -0.273708 0 255 0
0.550873 0.031684 0.091785 0 0 255
-0.380001 -0.806381 -0.268240 127 127 0
0.477723 -0.017780 0.028580 153 0 76
-0.558088 -0.527861 0.269950 0 127 127
0.150068 0.797341 -0.225470 127 0 127
-0.177999 -0.466310 -0.273708 0 255 0
0.277793 -0.388507 -0.149522 76 0 153
0.477696 -0.157683 0.252270 153 0 76
-0.213210 -0.017780 0.215989 153 0 76
-0.363637 -0.388507 -0.229248 76 0 153
-0.545282 0.609697 -0.040781 255 0 0
-0.035292 0.005794 -0.250841 153 0 76
-0.511154 -0.017780 -0.062631 153 0 76
0.425595 -0.017780 0.070989 153 0 76
-0.271049 0.376521 -0.031574 204 51 127
0.405607 -0.312486 0.269950 153 0 76
-0.366806 -0.017780 -0.234505 153 0 76
0.388011 -0.277733 0.269950 153 0 76
-0.395933 0.069637 0.269950 0 127 127
0.316365 -0.370911 0.252270 153 0 76
-0.249727 0.400094 0.199037 204 51 127
0.314885 0.376521 0.220461 204 51 127
0.000228 0.376521 0.105263 204 51 127
-0.562962 0.740094 0.037567 255 0 0
0.090594 -0.412080 0.140195 76 0 153
0.276088 -0.388507 -0.087992 76 0 153
0.018867 -0.412080 -0.254466 76 0 153
0.303881 -0.648493 0.252270 153 0 76
-0.014346 0.773768 0.142463 127 0 127
0.359573 0.245782 0.252270 153 0 76
-0.013199 -0.412080 -0.254719 0 255 0
0.465329 -0.782807 -0.262941 127 127 0
0.464460 -0.039684 0.252270 153 0 76
-0.562962 0.001940 -0.248202 255 0 0
0.041887 0.695969 0.269950 153 0 76
0.072186 -0.017780 -0.151893 153 0 76
0.568553 0.437683 -0.103223 0 0 255
0.266224 -0.703281 -0.291388 153 0 76
0.329406 0.773768 0.114265 127 0 127
0.550873 0.203293 0.091711 0 0 255
0.380195 0.376521 0.160582 204 51 127
-0.326522 0.249011 0.269950 0 127 127
-0.293738 0.797341 -0.281464 127 0 127
-0.416522 0.797341 0.248935 0 127 127
-0.545282 -0.322854 0.004352 255 0 0
0.284780 -0.753290 -0.267814 0 255 0
-0.079164 -0.081958 0.269950 0 127 127
-0.253816 0.797341 0.076256 127 0 127
0.414571 0.797341 0.003206 127 0 127
0.218646 0.676021 -0.291388 76 0 153
0.398372 -0.361045 -0.267814 0 255 0
0.006919 -0.806381 -0.115585 127 127 0
-0.291327 -0.026188 -0.291388 153 76 0
-0.562962 -0.656574 0.183411 255 0 0
-0.061505 0.376521 -0.160088 204 51 127
-0.562962 0.601390 -0.084597 255 0 0
-0.365333 0.773768 0.239869 127 0 127
-0.424387 0.054413 -0.274592 153 76 0
0.303067 -0.035900 -0.291388 153 76 0
-0.218470 -0.412080 0.226480 76 0 153
0.496552 0.005794 0.153793 153 0 76
-0.410458 0.005794 0.182050 153 0 76
-0.540954 -0.782807 0.052012 127 127 0
0.276315 0.773768 0.130540 127 0 127
0.568553 0.386228 0.239912 0 0 255
0.568553 0.377668 0.198786 0 0 255
0.488980 0.458125 0.252270 153 0 76
0.568553 0.018540 -0.156507 0 0 255
-0.283291 0.729114 0.252270 0 127 127
0.115413 -0.806381 -0.235653 127 127 0
0.550873 0.029155 -0.241059 0 0 255
0.019381 -0.806381 -0.174406 127 127 0
0.090069 -0.412080 -0.174993 76 0 153
-0.545282 0.278618 -0.040774 255 0 0
0.284100 0.634920 -0.273708 0 255 0
-0.562962 -0.335766 0.121013 255 0 0
-0.465548 0.043292 -0.267814 153 76 0
-0.562962 0.100626 0.209076 255 0 0
0.550873 -0.054841 -0.239892 0 0 255
-0.106736 -0.017780 -0.071509 153 0 76
0.401523 0.376521 0.059125 204 51 127
0.218744 -0.721079 -0.267814 0 255 0
0.430145 0.400094 0.197351 204 51 127
0.395693 -0.412080 0.150317 76 0 153
-0.019754 -0.782807 -0.260158 127 127 0
-0.044332 -0.785393 -0.291388 0 255 0
-0.545282 -0.604627 -0.161623 255 0 0
-0.038801 -0.388507 0.096855 76 0 153
-0.006445 -0.017780 -0.013073 153 0 76
0.557612 -0.288752 -0.291388 0 0 255
-0.052182 -0.388507 -0.220328 76 0 153
-0.328712 -0.261709 0.252270 0 127 127
0.347683 -0.003625 0.269950 153 0 76
-0.203678 0.081868 -0.273708 0 255 0
-0.351294 -0.730184 0.269950 0 127 127
0.248653 0.797341 0.237207 127 0 127
0.550873 -0.222634 -0.015318 0 0 255
-0.562962 -0.779790 -0.138965 255 0 0
-0.397505 0.797341 0.073172 127 0 127
-0.035698 -0.523148 0.269950 0 127 127
0.464875 -0.596092 0.252270 153 0 76
0.306307 0.773768 0.009502 127 0 127
0.186915 0.773768 -0.193100 127 0 127
0.550873 0.246378 0.074006 0 0 255
0.568553 -0.749599 0.013951 0 0 255
0.568553 -0.375623 -0.255230 0 0 255
0.392123 -0.666739 -0.291388 153 0 76
-0.054418 -0.679080 -0.291388 153 0 76
0.511318 0.797341 0.112417 127 0 127
-0.223642 -0.782807 0.058805 127 127 0
0.439595 -0.388507 -0.267220 76 0 153
0.370061 -0.806381 0.189911 127 127 0
0.308223 -0.621469 0.269950 153 0 76
0.029399 0.005794 -0.133594 153 0 76
0.428082 0.002181 0.269950 153 0 76
0.143035 -0.022105 0.269950 153 0 76
0.493937 0.797341 -0.227747 127 0 127
-0.545282 -0.125531 0.135161 255 0 0
0.066934 -0.806381 -0.015097 127 127 0
-0.418724 0.162896 0.269950 0 127 127
-0.133358 -0.806381 0.189785 127 127 0
-0.360881 0.005794 -0.004173 153 0 76
-0.036689 -0.017780 -0.083221 153 0 76
-0.406931 -0.107816 0.252270 0 127 127
-0.456558 -0.415985 -0.273708 0 255 0
0.117194 0.040370 -0.267814 0 255 0
0.550873 0.374096 -0.079669 0 0 255
-0.562962 0.499940 -0.133231 255 0 0
0.194014 -0.806381 0.102350 127 127 0
-0.267087 -0.806381 0.227686 127 127 0
0.120143 0.411884 0.252270 153 0 76
0.404271 -0.782807 0.067093 127 127 0
0.203732 0.376521 -0.081524 204 51 127
-0.030745 0.775470 -0.291388 127 0 127
0.481615 -0.017780 -0.089471 153 0 76
0.550873 -0.464119 -0.290145 0 0 255
-0.311494 0.018712 0.252270 0 127 127
0.540209 -0.437153 0.252270 153 0 76
-0.023406 -0.782807 0.092646 127 127 0
-0.062194 0.372328 0.269950 0 127 127
0.550873 -0.436942 0.172279 0 0 255
0.295214 0.654812 0.252270 153 0 76
-0.155449 0.554252 0.269950 0 127 127
-0.274691 -0.388507 -0.187381 76 0 153
0.371821 -0.412080 0.120530 76 0 153
-0.555342 -0.099899 0.250797 255 0 0
-0.296559 0.002256 -0.267814 153 76 0
0.315487 0.797341 0.140189 127 0 127
-0.561489 0.768026 0.253921 0 127 127
0.178935 0.376521 0.025175 204 51 127
0.403375 0.634232 0.269950 153 0 76
-0.519701 -0.190145 0.252270 0 127 127
-0.562962 0.558212 -0.039948 255 0 0
-0.441965 0.400094 0.217499 204 51 127
-0.106263 -0.806381 -0.188333 127 127 0
0.550873 0.494405 -0.039236 0 0 255
0.287944 0.005794 -0.073889 153 0 76
0.349922 -0.760506 -0.267814 0 255 0
-0.004692 -0.412080 -0.135198 76 0 153
-0.219804 -0.782807 0.248999 127 127 0
0.550873 0.025884 0.130389 0 0 255
0.066269 -0.017780 0.239172 153 0 76
-0.130495 0.400094 0.120760 204 51 127
-0.048229 -0.121687 -0.273708 0 255 0
0.239084 0.797341 -0.065148 127 0 127
0.085352 -0.806381 0.089344 127 127 0
-0.545282 0.124847 0.238884 0 127 127
-0.097340 -0.573259 0.252270 0 127 127
-0.159024 -0.772094 -0.267814 0 255 0
0.286123 -0.412080 -0.001968 76 0 153
0.191374 0.462770 0.269950 153 0 76
0.096723 0.252088 0.252270 153 0 76
0.550873 -0.574771 0.064794 0 0 255
-0.558388 -0.255333 0.269950 0 127 127
0.428746 -0.072954 0.269950 153 0 76
0.568553 -0.073803 -0.109212 0 0 255
-0.216503 0.797341 -0.161645 127 0 127
0.550873 -0.443991 -0.024665 0 0 255
-0.208789 -0.806381 0.225304 127 127 0
-0.532025 -0.144282 -0.273708 0 255 0
0.267598 -0.388507 -0.250765 76 0 153
0.455853 -0.782807 -0.087199 127 127 0
0.264393 0.126609 -0.273708 0 255 0
-0.529664 -0.806381 -0.051518 127 127 0
-0.455556 0.400094 0.131630 204 51 127
-0.562962 -0.159752 -0.028943 255 0 0
0.014579 -0.388507 -0.008844 76 0 153
-0.497627 -0.388507 0.046859 76 0 153
0.386358 0.005794 -0.257959 153 0 76
-0.280817 0.376521 -0.234841 204 51 127
0.464996 0.797341 0.243722 127 0 127
0.319460 0.136619 -0.273708 0 255 0
0.430387 -0.518817 0.269950 153 0 76
0.475420 0.634297 -0.267814 0 255 0
0.377276 0.235083 -0.273708 0 255 0
-0.438951 0.200827 -0.273708 0 255 0
-0.073199 0.501767 0.269950 0 127 127
0.402630 -0.404293 0.252270 153 0 76
-0.119915 0.005794 0.136686 153 0 76
0.550873 -0.076774 -0.051841 0 0 255
0.161381 0.400094 -0.034499 204 51 127
-0.001563 0.797341 -0.164372 127 0 127
-0.465705 0.555949 0.269950 0 127 127
-0.032717 0.773768 0.197344 127 0 127
-0.358192 0.291503 0.269950 0 127 127
-0.393505 -0.806381 0.001797 127 127 0
-0.178303 0.797341 0.230900 127 0 127
0.550873 0.236733 0.018339 0 0 255
-0.545282 0.491083 0.244435 255 0 0
0.197430 -0.412080 0.105116 76 0 153
0.012511 0.005794 0.042216 153 0 76
0.356572 -0.412080 0.243181 153 0 76
-0.434073 -0.017780 0.028836 153 0 76
-0.407109 -0.412080 0.110462 76 0 153
0.179179 0.768234 -0.273708 0 255 0
-0.394663 0.005794 -0.083135 153 0 76
0.329165 -0.091156 0.252270 153 0 76
0.095837 -0.466684 -0.267814 0 255 0
0.459156 0.797341 0.060490 127 0 127
0.363910 0.773768 0.044866 127 0 127
0.308298 0.741028 0.252270 153 0 76
-0.239883 0.457301 -0.267814 0 255 0
-0.545282 0.658437 -0.004349 255 0 0
-0.541804 0.773768 -0.208210 255 0 0
-0.083000 0.365922 -0.273708 0 255 0
0.550873 0.585068 0.161885 0 0 255
-0.562962 -0.633291 -0.111902 255 0 0
-0.162395 -0.724009 0.269950 0 127 127
0.148457 -0.412080 0.186650 76 0 153
-0.255611 0.197057 -0.273708 0 255 0
0.499057 -0.239260 0.269950 153 0 76
-0.300491 -0.782807 0.125975 127 127 0
0.266265 -0.806381 -0.049665 127 127 0
0.127032 0.400094 0.078780 204 51 127
-0.210089 -0.391474 0.244903 0 127 127
-0.284684 -0.412080 0.213725 76 0 153
0.454576 0.400094 0.004713 204 51 127
-0.562962 -0.623316 0.235216 255 0 0
0.175324 0.012716 0.269950 153 0 76
0.320294 0.005794 0.140498 153 0 76
-0.168023 0.005794 -0.024897 153 0 76
-0.260890 0.005794 -0.200080 153 0 76
0.102955 -0.718239 -0.267814 153 0 76
0.386332 0.797341 0.018873 127 0 127
0.004268 -0.227644 0.253124 153 0 76
-0.440008 0.422387 0.252270 0 127 127
-0.210785 0.626532 -0.267814 0 255 0
0.084493 0.701582 -0.267814 0 255 0
0.511068 0.038550 -0.291388 153 76 0
-0.545282 -0.455537 0.102597 255 0 0
-0.545282 -0.098408 -0.155256 255 0 0
0.471099 -0.806381 -0.121382 127 127 0
0.100139 -0.363953 0.252270 153 0 76
