ply
format ascii 1.0
element vertex 623
property float x
property float y
property float z
property float nx
property float ny
property float nz
property uchar red
property uchar green
property uchar blue
property float opacity
end_header
-0.347281 -0.694719 -0.138291 1.000000 0.000000 0.000000 162 97 51 1.000000
0.234498 0.213971 -0.120469 0.707107 0.000000 -0.707107 147 81 33 1.000000
-0.347281 -0.617799 -0.180607 -1.000000 0.000000 0.000000 255 255 255 1.000000
0.046621 0.823603 -0.157666 0.000000 1.000000 0.000000 141 80 37 1.000000
-0.161809 -0.501539 0.268171 0.707107 -0.000000 0.707107 255 255 255 1.000000
0.144907 0.291663 0.000755 0.707107 -0.000000 0.707107 150 85 41 1.000000
-0.042986 0.592509 0.188648 -0.707107 0.000000 -0.707107 255 255 255 1.000000
0.214890 0.434641 -0.069228 0.707107 -0.000000 0.707107 155 86 39 1.000000
0.108702 0.319203 -0.002340 -0.707107 0.000000 -0.707107 158 89 44 1.000000
0.037931 0.157742 0.068431 -0.707107 0.000000 -0.707107 143 82 39 1.000000
0.194798 -0.291177 -0.088437 -0.707107 0.000000 -0.707107 152 89 44 1.000000
-0.171060 -0.299382 0.277422 0.707107 -0.000000 0.707107 255 255 255 1.000000
-0.126722 -0.550107 0.272383 0.707107 -0.000000 0.707107 151 86 44 1.000000
0.001664 -0.380386 0.104697 0.707107 -0.000000 0.707107 255 255 255 1.000000
-0.034104 0.068970 0.179766 -0.707107 0.000000 -0.707107 255 255 255 1.000000
0.237757 0.715737 -0.176524 1.000000 0.000000 0.000000 255 255 255 1.000000
0.175418 0.136633 -0.029757 -0.707107 0.000000 -0.707107 255 255 255 1.000000
0.238627 0.388020 -0.188626 0.000000 0.000000 -1.000000 149 80 37 1.000000
-0.347281 -0.375590 -0.136644 1.000000 0.000000 0.000000 153 88 42 1.000000
0.035312 -0.928461 0.071049 0.707107 -0.000000 0.707107 255 255 255 1.000000
-0.162378 0.103244 0.308040 0.707107 -0.000000 0.707107 145 79 30 1.000000
0.162472 -0.300092 -0.016810 0.707107 -0.000000 0.707107 146 83 38 1.000000
0.101644 -0.557361 0.044017 0.707107 -0.000000 0.707107 146 85 42 1.000000
0.161628 -0.773073 -0.055266 -0.707107 0.000000 -0.707107 161 93 44 1.000000
-0.136895 0.401084 0.282556 0.707107 -0.000000 0.707107 148 84 35 1.000000
-0.347281 -0.097241 -0.141743 -1.000000 0.000000 0.000000 255 255 255 1.000000
-0.127901 -0.789638 0.234262 -0.707107 0.000000 -0.707107 154 88 42 1.000000
-0.180199 0.252243 0.325297 -0.707107 -0.000000 0.707107 151 85 37 1.000000
-0.349562 -0.031734 -0.188626 0.000000 0.000000 -1.000000 143 78 32 1.000000
-0.036840 -0.576445 0.143202 -0.707107 0.000000 -0.707107 146 79 36 1.000000
-0.347281 0.354116 -0.182290 -1.000000 0.000000 0.000000 255 255 255 1.000000
-0.034152 -0.688590 0.140513 0.707107 -0.000000 0.707107 255 255 255 1.000000
-0.118819 0.121288 0.264480 -0.707107 0.000000 -0.707107 255 255 255 1.000000
-0.083482 -0.801651 0.189844 0.707107 -0.000000 0.707107 255 255 255 1.000000
-0.347281 -0.320568 -0.185300 -1.000000 0.000000 0.000000 255 255 255 1.000000
-0.084045 0.124054 0.190407 0.707107 -0.000000 0.707107 255 255 255 1.000000
0.085377 -0.357100 0.060284 0.707107 -0.000000 0.707107 160 97 54 1.000000
-0.050463 0.140893 0.156825 0.707107 -0.000000 0.707107 255 255 255 1.000000
-0.383846 -0.314674 -0.131555 1.000000 0.000000 0.000000 152 88 39 1.000000
-0.082403 -0.064001 0.188764 0.707107 -0.000000 0.707107 255 255 255 1.000000
0.199289 -0.706900 -0.053628 0.707107 -0.000000 0.707107 155 89 50 1.000000
0.044359 0.563375 0.101303 0.707107 -0.000000 0.707107 144 83 43 1.000000
0.076499 -0.002251 0.069162 -0.707107 0.000000 -0.707107 255 255 255 1.000000
-0.183880 -0.398846 0.290242 -0.707107 0.000000 -0.707107 159 94 48 1.000000
0.043944 -0.449146 0.101717 -0.707107 0.000000 -0.707107 255 255 255 1.000000
0.000266 0.809661 -0.106721 0.000000 -0.000000 1.000000 152 85 42 1.000000
-0.113914 -0.385147 0.259575 -0.707107 0.000000 -0.707107 255 255 255 1.000000
-0.199524 -0.463205 0.305886 0.707107 -0.000000 0.707107 255 255 255 1.000000
-0.099749 0.179894 0.245410 0.707107 -0.000000 0.707107 153 88 42 1.000000
0.104054 0.267638 0.041608 -0.707107 0.000000 -0.707107 255 255 255 1.000000
0.003523 -0.081271 0.142138 0.707107 -0.000000 0.707107 149 86 41 1.000000
-0.129200 0.562148 0.274861 -0.707107 0.000000 -0.707107 255 255 255 1.000000
-0.347281 0.274024 -0.171065 -1.000000 0.000000 0.000000 255 255 255 1.000000
-0.160619 -0.645877 0.266981 -0.707107 0.000000 -0.707107 154 89 43 1.000000
0.274322 0.247514 -0.170575 1.000000 0.000000 0.000000 145 79 33 1.000000
0.227405 -0.817544 -0.081743 -0.707107 0.000000 -0.707107 255 255 255 1.000000
-0.119908 -0.464880 0.265569 -0.707107 0.000000 -0.707107 255 255 255 1.000000
0.117696 -0.278392 -0.011334 -0.707107 0.000000 -0.707107 157 88 45 1.000000
0.119742 -0.081584 0.025919 -0.707107 0.000000 -0.707107 255 255 255 1.000000
-0.029831 0.082959 0.136193 0.707107 -0.000000 0.707107 255 255 255 1.000000
-0.235036 0.787039 -0.182804 0.000000 1.000000 0.000000 147 81 33 1.000000
0.237757 -0.611734 -0.181771 1.000000 0.000000 0.000000 255 255 255 1.000000
0.152763 -0.389178 -0.046401 0.707107 -0.000000 0.707107 255 255 255 1.000000
-0.083491 -0.596304 0.189852 0.707107 -0.000000 0.707107 255 255 255 1.000000
-0.113900 0.013206 0.259562 0.707107 -0.000000 0.707107 145 80 34 1.000000
0.174878 0.823603 -0.142014 0.000000 -1.000000 -0.000000 156 87 40 1.000000
-0.180220 0.823603 -0.155988 0.000000 1.000000 0.000000 150 85 39 1.000000
0.020031 -0.189424 0.125631 -0.707107 0.000000 -0.707107 255 255 255 1.000000
0.214867 -0.133666 -0.069205 0.707107 -0.000000 0.707107 157 95 45 1.000000
-0.347281 0.444264 -0.177136 1.000000 0.000000 0.000000 153 87 38 1.000000
0.232973 0.800400 -0.134510 0.000000 0.000000 -1.000000 255 255 255 1.000000
-0.082432 -0.530898 0.188793 0.707107 -0.000000 0.707107 255 255 255 1.000000
-0.084889 0.002248 0.191251 -0.707107 0.000000 -0.707107 157 88 41 1.000000
0.134608 -0.790064 -0.028246 0.707107 -0.000000 0.707107 255 255 255 1.000000
0.274322 -0.651301 -0.178924 1.000000 0.000000 0.000000 157 93 43 1.000000
0.274322 0.358363 -0.173742 -1.000000 0.000000 0.000000 147 83 34 1.000000
0.161934 0.016603 -0.055572 -0.707107 0.000000 -0.707107 153 90 37 1.000000
0.222255 -0.083825 -0.076593 -0.707107 0.000000 -0.707107 255 255 255 1.000000
0.204835 0.091419 -0.059174 -0.707107 0.000000 -0.707107 255 255 255 1.000000
0.065451 -0.812051 0.040910 -0.707107 0.000000 -0.707107 156 90 44 1.000000
0.157021 0.261342 -0.050659 0.707107 -0.000000 0.707107 255 255 255 1.000000
0.037739 0.495098 0.068622 -0.707107 0.000000 -0.707107 148 82 36 1.000000
0.230019 0.823603 -0.207633 0.000000 1.000000 0.000000 149 78 36 1.000000
0.274322 0.018455 -0.186502 -1.000000 0.000000 0.000000 147 87 39 1.000000
0.237757 -0.158342 -0.188334 -1.000000 0.000000 0.000000 145 80 34 1.000000
-0.089372 0.759295 0.235033 -0.707107 0.000000 -0.707107 255 255 255 1.000000
0.157529 -0.868679 -0.011868 -0.707107 0.000000 -0.707107 255 255 255 1.000000
-0.164245 -0.913474 0.270607 0.707107 -0.000000 0.707107 255 255 255 1.000000
-0.019192 -0.157960 0.164854 0.707107 -0.000000 0.707107 145 82 37 1.000000
0.237757 -0.094878 -0.186579 1.000000 0.000000 0.000000 255 255 255 1.000000
-0.383846 -0.521252 -0.136096 -1.000000 0.000000 0.000000 162 98 49 1.000000
-0.314661 0.823603 -0.156496 0.000000 1.000000 0.000000 151 85 37 1.000000
0.115163 0.080659 -0.008801 -0.707107 0.000000 -0.707107 146 77 30 1.000000
0.237757 -0.755502 -0.135068 -1.000000 0.000000 0.000000 159 95 46 1.000000
-0.367490 -0.393998 -0.106721 0.000000 0.000000 -1.000000 255 255 255 1.000000
0.038992 -0.280796 0.106670 0.707107 -0.000000 0.707107 157 96 55 1.000000
0.045082 -0.403408 0.061280 0.707107 -0.000000 0.707107 255 255 255 1.000000
0.238945 0.798686 -0.093284 -0.707107 0.000000 -0.707107 255 255 255 1.000000
0.237757 0.267288 -0.181565 1.000000 0.000000 0.000000 255 255 255 1.000000
0.037751 0.789076 0.107911 -0.707107 0.000000 -0.707107 255 255 255 1.000000
-0.134062 -0.828083 0.279723 -0.707107 0.000000 -0.707107 255 255 255 1.000000
-0.157559 0.761117 0.263920 0.707107 -0.000000 0.707107 255 255 255 1.000000
-0.055152 0.352448 0.161513 -0.707107 0.000000 -0.707107 154 85 38 1.000000
0.000712 0.038158 0.144950 0.707107 -0.000000 0.707107 156 93 48 1.000000
-0.198397 -0.238636 0.304759 0.707107 -0.000000 0.707107 255 255 255 1.000000
0.221361 0.599436 -0.115000 -0.707107 0.000000 -0.707107 154 88 40 1.000000
-0.066584 0.722393 0.172946 -0.707107 0.000000 -0.707107 157 91 45 1.000000
-0.383846 0.005198 -0.177576 1.000000 0.000000 0.000000 149 82 39 1.000000
0.045176 -0.683620 0.061185 0.707107 -0.000000 0.707107 255 255 255 1.000000
-0.120408 -0.331951 0.266070 -0.707107 0.000000 -0.707107 255 255 255 1.000000
-0.362797 -0.164080 -0.216416 0.000000 0.000000 -1.000000 143 78 34 1.000000
0.274322 0.153791 -0.177274 -1.000000 0.000000 0.000000 145 78 35 1.000000
-0.383846 -0.198494 -0.150300 -1.000000 0.000000 0.000000 152 88 38 1.000000
0.012448 0.195734 0.093914 0.707107 -0.000000 0.707107 255 255 255 1.000000
0.000140 0.315867 0.106221 -0.707107 0.000000 -0.707107 150 85 39 1.000000
0.241000 0.740668 -0.134510 0.000000 0.000000 -1.000000 255 255 255 1.000000
-0.003643 -0.021646 0.110004 -0.707107 0.000000 -0.707107 137 72 28 1.000000
-0.011286 0.787039 -0.138812 0.000000 -1.000000 -0.000000 255 255 255 1.000000
0.038638 -0.579188 0.067724 0.707107 -0.000000 0.707107 255 255 255 1.000000
0.067405 0.334088 0.038957 -0.707107 0.000000 -0.707107 155 86 39 1.000000
-0.082559 -0.323134 0.228220 0.707107 -0.000000 0.707107 150 85 41 1.000000
0.206546 -0.641998 -0.060885 0.707107 -0.000000 0.707107 146 83 38 1.000000
0.237757 0.080318 -0.145333 1.000000 0.000000 0.000000 255 255 255 1.000000
0.178838 -0.433891 -0.072476 0.707107 -0.000000 0.707107 255 255 255 1.000000
-0.055579 -0.217905 0.201241 -0.707107 0.000000 -0.707107 255 255 255 1.000000
-0.164688 0.494333 0.310349 -0.707107 0.000000 -0.707107 255 255 255 1.000000
-0.347281 0.053114 -0.145859 -1.000000 0.000000 0.000000 255 255 255 1.000000
-0.117440 -0.366245 0.223802 -0.707107 0.000000 -0.707107 154 88 50 1.000000
-0.029491 0.798518 0.135853 -0.707107 0.000000 -0.707107 149 82 39 1.000000
0.073073 -0.283211 0.033289 0.707107 -0.000000 0.707107 255 255 255 1.000000
0.060283 -0.130462 0.085379 0.707107 -0.000000 0.707107 152 88 48 1.000000
0.018626 0.003519 0.087735 0.707107 -0.000000 0.707107 255 255 255 1.000000
0.091888 0.536662 0.014473 0.707107 -0.000000 0.707107 255 255 255 1.000000
0.028961 -0.063322 0.077401 -0.707107 0.000000 -0.707107 149 84 40 1.000000
0.043492 0.439382 0.062869 -0.707107 0.000000 -0.707107 147 78 31 1.000000
-0.057578 -0.313057 0.163940 0.707107 -0.000000 0.707107 255 255 255 1.000000
0.238278 0.194785 -0.188626 0.000000 0.000000 -1.000000 160 91 44 1.000000
-0.008498 -0.879597 0.154160 0.707107 -0.000000 0.707107 151 86 40 1.000000
0.252383 -0.272093 -0.214368 1.000000 0.000000 0.000000 255 255 255 1.000000
0.019013 -0.647178 0.087349 0.707107 -0.000000 0.707107 255 255 255 1.000000
0.116804 -0.422914 -0.010442 -0.707107 0.000000 -0.707107 154 88 40 1.000000
0.233221 -0.312242 -0.121746 0.707107 0.000000 -0.707107 143 78 32 1.000000
0.237909 0.130946 -0.188626 0.000000 -0.000000 1.000000 255 255 255 1.000000
-0.383846 0.421598 -0.194139 1.000000 0.000000 0.000000 136 70 22 1.000000
0.123656 -0.126429 0.022006 -0.707107 0.000000 -0.707107 255 255 255 1.000000
-0.050784 0.448530 0.196445 -0.707107 0.000000 -0.707107 255 255 255 1.000000
0.013586 -0.321474 0.092776 -0.707107 0.000000 -0.707107 160 91 44 1.000000
-0.056934 -0.492512 0.163296 0.707107 -0.000000 0.707107 255 255 255 1.000000
0.050795 0.700884 0.094867 0.707107 -0.000000 0.707107 158 93 49 1.000000
-0.383846 0.668194 -0.174035 1.000000 0.000000 0.000000 154 89 43 1.000000
0.224545 -0.215646 -0.078884 0.707107 -0.000000 0.707107 148 85 40 1.000000
0.274322 -0.767077 -0.156267 -1.000000 0.000000 0.000000 151 86 42 1.000000
0.184203 -0.510910 -0.038542 0.707107 -0.000000 0.707107 147 84 39 1.000000
0.114356 -0.680478 0.031306 -0.707107 0.000000 -0.707107 255 255 255 1.000000
0.237757 -0.412419 -0.153273 1.000000 0.000000 0.000000 255 255 255 1.000000
0.155411 0.801944 -0.216416 0.000000 0.000000 -1.000000 152 89 44 1.000000
-0.117993 -0.928584 0.231014 0.000000 1.000000 0.000000 255 255 255 1.000000
0.060591 -0.807071 0.085070 -0.707107 0.000000 -0.707107 255 255 255 1.000000
-0.361907 -0.691236 -0.206176 1.000000 0.000000 0.000000 163 97 51 1.000000
-0.172690 -0.437825 0.279051 -0.707107 0.000000 -0.707107 156 91 45 1.000000
0.274322 -0.394248 -0.177842 1.000000 0.000000 0.000000 139 76 29 1.000000
0.081799 -0.521214 0.063862 -0.707107 0.000000 -0.707107 255 255 255 1.000000
-0.349146 -0.629259 -0.134510 0.000000 -0.000000 1.000000 139 74 28 1.000000
0.113244 -0.217256 -0.006882 -0.707107 0.000000 -0.707107 156 90 42 1.000000
-0.383846 -0.789613 -0.145429 -1.000000 0.000000 0.000000 148 82 34 1.000000
0.057513 0.386547 0.048849 0.707107 -0.000000 0.707107 255 255 255 1.000000
0.104072 0.406675 0.041590 0.707107 -0.000000 0.707107 147 86 45 1.000000
0.188377 -0.864933 -0.082015 -0.707107 0.000000 -0.707107 155 85 37 1.000000
0.100911 0.186375 0.044750 0.707107 -0.000000 0.707107 155 90 46 1.000000
-0.345175 0.823603 -0.208480 0.000000 1.000000 0.000000 150 85 39 1.000000
-0.055070 -0.812013 0.161432 -0.707107 0.000000 -0.707107 165 96 49 1.000000
0.237757 0.548245 -0.134540 1.000000 0.000000 0.000000 255 255 255 1.000000
0.003879 -0.529918 0.102482 0.707107 -0.000000 0.707107 255 255 255 1.000000
0.274322 -0.261933 -0.106943 1.000000 0.000000 0.000000 135 70 24 1.000000
-0.033512 0.710266 0.139874 -0.707107 0.000000 -0.707107 145 79 33 1.000000
-0.112420 0.425209 0.258082 -0.707107 0.000000 -0.707107 255 255 255 1.000000
-0.182460 -0.552981 0.288822 0.707107 -0.000000 0.707107 255 255 255 1.000000
0.060573 0.772974 0.045788 -0.707107 0.000000 -0.707107 150 83 40 1.000000
-0.362367 0.281591 -0.106721 0.000000 0.000000 -1.000000 255 255 255 1.000000
0.104078 0.704307 0.002284 -0.707107 0.000000 -0.707107 141 74 33 1.000000
-0.118402 0.615125 0.264063 -0.707107 0.000000 -0.707107 255 255 255 1.000000
-0.347281 0.771266 -0.148281 -1.000000 0.000000 0.000000 255 255 255 1.000000
-0.119031 0.049231 0.225393 0.707107 -0.000000 0.707107 255 255 255 1.000000
0.237757 0.635474 -0.183557 -1.000000 0.000000 0.000000 153 88 46 1.000000
0.078641 0.238253 0.027720 -0.707107 0.000000 -0.707107 151 85 37 1.000000
0.237757 0.657954 -0.145242 -1.000000 0.000000 0.000000 148 83 37 1.000000
0.077534 0.719464 0.028827 -0.707107 0.000000 -0.707107 155 90 46 1.000000
-0.037797 -0.120607 0.183459 0.707107 -0.000000 0.707107 152 89 44 1.000000
0.274322 0.511518 -0.140094 -1.000000 0.000000 0.000000 143 78 32 1.000000
0.126924 -0.534078 -0.020563 0.707107 -0.000000 0.707107 255 255 255 1.000000
0.274322 0.064118 -0.178941 -1.000000 0.000000 0.000000 154 94 46 1.000000
0.129363 -0.734408 -0.023002 -0.707107 0.000000 -0.707107 160 94 46 1.000000
-0.177949 -0.171164 0.323610 0.707107 -0.000000 0.707107 150 85 43 1.000000
-0.365125 0.286791 -0.216416 0.000000 0.000000 -1.000000 140 74 25 1.000000
-0.347281 0.311394 -0.180574 -1.000000 0.000000 0.000000 255 255 255 1.000000
0.146840 -0.445956 -0.001179 0.707107 -0.000000 0.707107 145 81 41 1.000000
-0.347628 0.627275 -0.134510 0.000000 0.000000 -1.000000 255 255 255 1.000000
0.045134 -0.364985 0.100527 0.707107 -0.000000 0.707107 147 82 40 1.000000
-0.196416 -0.318325 0.302778 -0.707107 0.000000 -0.707107 142 78 29 1.000000
0.123843 -0.739658 0.021819 0.707107 -0.000000 0.707107 145 84 44 1.000000
-0.071089 -0.403316 0.216750 -0.707107 0.000000 -0.707107 255 255 255 1.000000
-0.196587 -0.017733 0.302949 0.707107 -0.000000 0.707107 255 255 255 1.000000
0.022102 -0.250381 0.123559 -0.707107 0.000000 -0.707107 255 255 255 1.000000
-0.347281 -0.828528 -0.140360 -1.000000 0.000000 0.000000 255 255 255 1.000000
-0.143182 0.016217 0.288844 -0.707107 0.000000 -0.707107 255 255 255 1.000000
-0.383846 -0.409133 -0.179649 -1.000000 0.000000 0.000000 143 78 32 1.000000
-0.347281 0.144383 -0.165259 -1.000000 0.000000 0.000000 255 255 255 1.000000
0.083861 -0.442499 0.061801 0.707107 -0.000000 0.707107 155 92 47 1.000000
-0.261640 0.823603 -0.130074 0.000000 -1.000000 -0.000000 153 88 42 1.000000
-0.078368 -0.701783 0.184729 0.707107 -0.000000 0.707107 255 255 255 1.000000
-0.105930 0.681908 0.251592 -0.707107 0.000000 -0.707107 255 255 255 1.000000
0.201531 -0.773240 -0.095169 0.707107 -0.000000 0.707107 255 255 255 1.000000
-0.021696 -0.754951 0.167358 0.707107 -0.000000 0.707107 143 77 31 1.000000
0.149923 0.571954 -0.043561 -0.707107 0.000000 -0.707107 141 72 25 1.000000
-0.152040 0.200152 0.297701 -0.707107 0.000000 -0.707107 255 255 255 1.000000
-0.028466 0.823603 -0.171854 0.000000 1.000000 0.000000 147 83 43 1.000000
-0.187230 0.393635 0.318266 0.707107 0.000000 -0.707107 255 255 255 1.000000
0.187346 -0.063295 -0.080985 -0.707107 0.000000 -0.707107 151 86 40 1.000000
0.078072 0.644399 0.067589 0.707107 -0.000000 0.707107 150 89 48 1.000000
-0.361907 0.559308 -0.107453 1.000000 0.000000 0.000000 165 99 50 1.000000
-0.349331 -0.294711 -0.134510 0.000000 -0.000000 1.000000 161 96 50 1.000000
-0.383846 0.085781 -0.138067 1.000000 0.000000 0.000000 143 79 30 1.000000
0.017052 -0.747111 0.128609 -0.707107 0.000000 -0.707107 255 255 255 1.000000
0.274322 -0.694570 -0.186152 -1.000000 0.000000 0.000000 154 89 47 1.000000
0.166832 -0.241531 -0.021171 -0.707107 0.000000 -0.707107 255 255 255 1.000000
0.024404 -0.480048 0.081957 -0.707107 0.000000 -0.707107 153 88 42 1.000000
0.238976 -0.710604 -0.093314 0.707107 -0.000000 0.707107 156 85 41 1.000000
-0.361907 0.697600 -0.128757 1.000000 0.000000 0.000000 151 86 40 1.000000
-0.002551 -0.844514 0.108913 0.707107 -0.000000 0.707107 255 255 255 1.000000
-0.347281 -0.175104 -0.170829 -1.000000 0.000000 0.000000 255 255 255 1.000000
0.186558 -0.159890 -0.040896 0.707107 -0.000000 0.707107 145 82 37 1.000000
0.087673 0.135764 0.018689 -0.707107 0.000000 -0.707107 153 87 39 1.000000
-0.382943 0.540777 -0.216416 0.000000 -0.000000 1.000000 255 255 255 1.000000
-0.143397 -0.702386 0.249759 -0.707107 0.000000 -0.707107 144 79 33 1.000000
0.246299 -0.460251 -0.100637 -0.707107 0.000000 -0.707107 255 255 255 1.000000
0.010018 0.586562 0.096343 0.707107 -0.000000 0.707107 255 255 255 1.000000
0.274322 -0.478141 -0.169058 1.000000 0.000000 0.000000 158 92 43 1.000000
-0.357203 0.029916 -0.188626 0.000000 -0.000000 1.000000 255 255 255 1.000000
0.002655 0.544910 0.143007 -0.707107 0.000000 -0.707107 255 255 255 1.000000
-0.383846 0.797068 -0.176311 1.000000 0.000000 0.000000 161 90 50 1.000000
0.244801 0.135134 -0.099139 0.707107 -0.000000 0.707107 145 79 31 1.000000
-0.139619 -0.199822 0.245980 0.707107 -0.000000 0.707107 255 255 255 1.000000
-0.142509 0.537881 0.248871 0.707107 -0.000000 0.707107 255 255 255 1.000000
0.089165 0.007596 0.017197 -0.707107 0.000000 -0.707107 153 88 42 1.000000
0.243950 0.041909 -0.134510 0.000000 -0.000000 1.000000 149 86 41 1.000000
0.170383 -0.228278 -0.064022 0.707107 -0.000000 0.707107 255 255 255 1.000000
0.185883 0.185094 -0.040221 0.707107 -0.000000 0.707107 146 77 30 1.000000
-0.095586 0.582924 0.241248 0.707107 -0.000000 0.707107 156 90 44 1.000000
-0.130532 0.356085 0.236893 -0.707107 0.000000 -0.707107 152 83 38 1.000000
0.184162 -0.011038 -0.038501 -0.707107 0.000000 -0.707107 255 255 255 1.000000
0.215065 -0.488912 -0.069403 0.707107 -0.000000 0.707107 155 90 46 1.000000
0.178112 0.443423 -0.071751 -0.707107 0.000000 -0.707107 148 78 30 1.000000
0.135325 0.165442 0.010337 -0.707107 0.000000 -0.707107 255 255 255 1.000000
0.252383 0.288239 -0.214750 -1.000000 0.000000 0.000000 140 75 31 1.000000
0.272583 0.823603 -0.212390 0.000000 1.000000 0.000000 147 77 30 1.000000
-0.383846 0.469456 -0.194292 -1.000000 0.000000 0.000000 138 72 24 1.000000
0.081804 -0.472404 0.024558 0.707107 -0.000000 0.707107 255 255 255 1.000000
0.072054 -0.885339 0.073608 -0.707107 0.000000 -0.707107 255 255 255 1.000000
-0.109250 -0.422397 0.254912 0.707107 -0.000000 0.707107 142 77 33 1.000000
-0.064715 -0.669273 0.171077 0.707107 -0.000000 0.707107 255 255 255 1.000000
0.155322 0.476057 -0.048961 -0.707107 0.000000 -0.707107 156 86 38 1.000000
-0.031604 -0.278995 0.137966 0.707107 -0.000000 0.707107 255 255 255 1.000000
-0.116546 0.258011 0.262208 0.707107 -0.000000 0.707107 153 88 44 1.000000
-0.011076 0.369154 0.117437 0.707107 -0.000000 0.707107 255 255 255 1.000000
0.264952 0.342407 -0.106721 0.000000 -0.000000 1.000000 144 78 30 1.000000
-0.348721 -0.264131 -0.188626 0.000000 -0.000000 1.000000 255 255 255 1.000000
0.085160 -0.635099 0.060501 0.707107 -0.000000 0.707107 139 75 36 1.000000
0.064029 -0.038529 0.042333 0.707107 -0.000000 0.707107 255 255 255 1.000000
-0.058632 -0.899962 0.204294 -0.707107 0.000000 -0.707107 255 255 255 1.000000
0.107493 0.774597 0.038168 -0.707107 0.000000 -0.707107 255 255 255 1.000000
0.226754 0.042218 -0.081092 -0.707107 0.000000 -0.707107 255 255 255 1.000000
0.113694 -0.900773 -0.007333 0.707107 -0.000000 0.707107 255 255 255 1.000000
-0.383846 0.151241 -0.173935 -1.000000 0.000000 0.000000 150 86 37 1.000000
0.145044 0.224598 -0.038683 0.707107 -0.000000 0.707107 255 255 255 1.000000
0.164121 -0.829127 -0.057760 -0.707107 0.000000 -0.707107 157 89 40 1.000000
-0.164180 0.551032 0.309841 -0.707107 0.000000 -0.707107 255 255 255 1.000000
0.102499 -0.854630 0.043162 -0.707107 0.000000 -0.707107 255 255 255 1.000000
-0.034261 0.634884 0.179922 0.707107 -0.000000 0.707107 164 98 52 1.000000
-0.122172 -0.871007 0.267833 0.707107 -0.000000 0.707107 155 90 44 1.000000
0.077304 0.699000 0.068358 0.707107 -0.000000 0.707107 151 87 48 1.000000
0.048800 0.533628 0.057562 0.707107 -0.000000 0.707107 255 255 255 1.000000
0.223040 -0.899688 -0.077378 0.707107 -0.000000 0.707107 151 82 35 1.000000
-0.156254 -0.658758 0.301916 -0.707107 0.000000 -0.707107 255 255 255 1.000000
-0.079201 0.507509 0.224863 -0.707107 0.000000 -0.707107 255 255 255 1.000000
0.037994 0.058353 0.107667 0.707107 -0.000000 0.707107 150 87 42 1.000000
-0.361907 -0.098218 -0.201087 1.000000 0.000000 0.000000 145 79 33 1.000000
-0.111936 0.556916 0.218297 0.707107 -0.000000 0.707107 255 255 255 1.000000
-0.150634 -0.093318 0.296296 -0.707107 0.000000 -0.707107 255 255 255 1.000000
0.170262 0.388415 -0.063901 -0.707107 0.000000 -0.707107 140 72 23 1.000000
-0.173886 -0.835764 0.319548 0.707107 -0.000000 0.707107 149 85 36 1.000000
-0.165107 -0.371959 0.310769 -0.707107 0.000000 -0.707107 255 255 255 1.000000
-0.019061 0.607359 0.125422 -0.707107 0.000000 -0.707107 157 88 43 1.000000
-0.383846 -0.208457 -0.214750 -1.000000 0.000000 0.000000 154 88 42 1.000000
0.204809 -0.345932 -0.059148 -0.707107 0.000000 -0.707107 255 255 255 1.000000
0.239191 -0.351313 -0.115776 -0.707107 -0.000000 0.707107 255 255 255 1.000000
-0.019996 0.772849 0.165658 0.707107 -0.000000 0.707107 150 85 39 1.000000
0.113057 0.561510 0.032604 -0.707107 0.000000 -0.707107 255 255 255 1.000000
0.089439 -0.151837 0.056222 -0.707107 0.000000 -0.707107 255 255 255 1.000000
0.078188 -0.769685 0.028173 -0.707107 0.000000 -0.707107 153 87 41 1.000000
0.274322 -0.576083 -0.150269 -1.000000 0.000000 0.000000 148 83 39 1.000000
0.274322 -0.526393 -0.115705 -1.000000 0.000000 0.000000 162 98 49 1.000000
0.220267 0.636673 -0.113906 0.707107 -0.000000 0.707107 255 255 255 1.000000
-0.076143 0.042695 0.182505 0.707107 -0.000000 0.707107 255 255 255 1.000000
0.178303 -0.575593 -0.071941 0.707107 -0.000000 0.707107 255 255 255 1.000000
0.274322 -0.317460 -0.158807 -1.000000 0.000000 0.000000 159 94 48 1.000000
0.258949 -0.395485 -0.106721 0.000000 -0.000000 1.000000 141 76 30 1.000000
0.009662 -0.398814 0.135999 -0.707107 0.000000 -0.707107 255 255 255 1.000000
-0.021889 -0.547179 0.167550 0.707107 -0.000000 0.707107 155 90 44 1.000000
-0.383846 0.612680 -0.187677 -1.000000 0.000000 0.000000 143 78 32 1.000000
0.214014 0.165055 -0.068353 -0.707107 0.000000 -0.707107 255 255 255 1.000000
0.246217 0.263930 -0.100555 0.707107 -0.000000 0.707107 157 91 45 1.000000
0.171473 -0.629303 -0.025811 0.707107 -0.000000 0.707107 155 96 50 1.000000
0.131875 -0.357415 -0.025513 0.707107 -0.000000 0.707107 255 255 255 1.000000
0.237757 0.128109 -0.148747 1.000000 0.000000 0.000000 255 255 255 1.000000
0.187382 0.753036 -0.081020 -0.707107 0.000000 -0.707107 157 91 45 1.000000
0.274322 -0.252104 -0.142755 1.000000 0.000000 0.000000 140 75 31 1.000000
-0.010870 0.367062 0.156532 0.707107 -0.000000 0.707107 146 81 39 1.000000
-0.097018 -0.134987 0.203380 0.707107 -0.000000 0.707107 255 255 255 1.000000
-0.383846 -0.255441 -0.137208 1.000000 0.000000 0.000000 138 74 25 1.000000
-0.363715 -0.615945 -0.216416 0.000000 -0.000000 1.000000 255 255 255 1.000000
0.143161 0.662934 0.002501 -0.707107 0.000000 -0.707107 255 255 255 1.000000
-0.168460 0.262374 0.274822 0.707107 -0.000000 0.707107 255 255 255 1.000000
0.273605 0.300524 -0.106721 0.000000 -0.000000 1.000000 151 85 37 1.000000
-0.034603 -0.047401 0.180264 -0.707107 0.000000 -0.707107 255 255 255 1.000000
0.237757 -0.058956 -0.177402 1.000000 0.000000 0.000000 255 255 255 1.000000
0.274322 -0.850423 -0.140761 -1.000000 0.000000 0.000000 153 87 39 1.000000
-0.383846 -0.533285 -0.183791 -1.000000 0.000000 0.000000 145 74 34 1.000000
-0.104434 0.823603 -0.172681 0.000000 -1.000000 -0.000000 151 87 47 1.000000
-0.157001 0.458481 0.302662 -0.707107 0.000000 -0.707107 255 255 255 1.000000
-0.108949 -0.586498 0.215311 -0.707107 0.000000 -0.707107 159 92 49 1.000000
0.237757 -0.806593 -0.159440 1.000000 0.000000 0.000000 255 255 255 1.000000
0.009556 -0.145187 0.136106 -0.707107 0.000000 -0.707107 255 255 255 1.000000
0.173265 -0.058570 -0.027604 0.707107 -0.000000 0.707107 155 92 45 1.000000
-0.047835 -0.293197 0.193497 -0.707107 0.000000 -0.707107 255 255 255 1.000000
0.088638 0.625737 0.017723 0.707107 -0.000000 0.707107 255 255 255 1.000000
0.274322 0.627931 -0.140962 1.000000 0.000000 0.000000 154 89 43 1.000000
-0.383846 0.450361 -0.121799 -1.000000 0.000000 0.000000 141 75 29 1.000000
0.178749 0.770291 -0.033088 0.707107 -0.000000 0.707107 156 93 48 1.000000
0.118420 0.491765 -0.012058 -0.707107 0.000000 -0.707107 159 90 37 1.000000
0.017736 0.460552 0.127925 0.707107 -0.000000 0.707107 159 95 55 1.000000
-0.088012 0.465696 0.233673 -0.707107 0.000000 -0.707107 255 255 255 1.000000
0.182667 -0.117738 -0.037005 0.707107 -0.000000 0.707107 142 79 36 1.000000
0.020548 0.130170 0.125113 0.707107 -0.000000 0.707107 151 88 43 1.000000
0.113132 -0.498659 0.032530 -0.707107 0.000000 -0.707107 255 255 255 1.000000
0.147030 0.410167 -0.040669 -0.707107 0.000000 -0.707107 144 73 29 1.000000
0.146358 -0.086106 -0.000696 0.707107 -0.000000 0.707107 148 85 38 1.000000
-0.347281 -0.496321 -0.141299 1.000000 0.000000 0.000000 156 91 45 1.000000
0.025402 -0.823501 0.120260 0.707107 -0.000000 0.707107 159 95 55 1.000000
0.205863 0.374264 -0.060201 0.707107 -0.000000 0.707107 150 84 38 1.000000
-0.079719 0.686839 0.186081 0.707107 -0.000000 0.707107 255 255 255 1.000000
0.018464 0.274558 0.087898 0.707107 -0.000000 0.707107 255 255 255 1.000000
0.221294 -0.841339 -0.114933 -0.707107 0.000000 -0.707107 145 77 28 1.000000
0.195636 0.790653 -0.134510 0.000000 0.000000 -1.000000 255 255 255 1.000000
0.023792 -0.757615 0.082570 0.707107 -0.000000 0.707107 255 255 255 1.000000
0.108728 -0.605565 0.036933 0.707107 -0.000000 0.707107 159 96 51 1.000000
0.030748 0.239778 0.114914 0.707107 -0.000000 0.707107 156 91 47 1.000000
-0.078208 0.417602 0.184570 0.707107 -0.000000 0.707107 255 255 255 1.000000
-0.103246 -0.766739 0.248907 -0.707107 0.000000 -0.707107 255 255 255 1.000000
0.079860 0.070227 0.026501 -0.707107 0.000000 -0.707107 144 79 33 1.000000
0.274322 -0.920500 -0.141957 1.000000 0.000000 0.000000 145 79 31 1.000000
-0.162008 0.070352 0.268370 0.707107 -0.000000 0.707107 255 255 255 1.000000
-0.127973 -0.671947 0.234334 0.707107 -0.000000 0.707107 255 255 255 1.000000
-0.098729 0.394081 0.244391 0.707107 -0.000000 0.707107 146 81 35 1.000000
0.237757 -0.373775 -0.153693 1.000000 0.000000 0.000000 255 255 255 1.000000
0.187649 -0.892217 -0.041987 0.707107 -0.000000 0.707107 149 80 37 1.000000
0.117341 -0.408746 0.028321 0.707107 -0.000000 0.707107 146 82 42 1.000000
0.107516 -0.619739 -0.001155 -0.707107 0.000000 -0.707107 144 77 36 1.000000
0.237757 -0.706077 -0.181661 1.000000 0.000000 0.000000 255 255 255 1.000000
-0.173375 -0.354430 0.279737 0.707107 -0.000000 0.707107 255 255 255 1.000000
-0.026723 -0.232297 0.172385 0.707107 -0.000000 0.707107 152 89 44 1.000000
-0.177048 0.028867 0.283410 -0.707107 0.000000 -0.707107 144 79 27 1.000000
-0.127080 -0.607731 0.272741 0.707107 -0.000000 0.707107 148 84 34 1.000000
0.049874 -0.322304 0.056488 0.707107 -0.000000 0.707107 255 255 255 1.000000
-0.143716 -0.218763 0.329041 0.053643 0.969797 0.237941 206 212 222 1.000000
-0.082599 -0.382638 0.188960 0.707107 -0.000000 0.707107 255 255 255 1.000000
-0.081932 -0.206202 0.227594 0.707107 -0.000000 0.707107 164 99 53 1.000000
0.185399 0.237920 -0.039738 -0.707107 0.000000 -0.707107 255 255 255 1.000000
-0.154503 -0.577411 0.300164 -0.707107 0.000000 -0.707107 255 255 255 1.000000
-0.124878 -0.518640 0.231239 0.707107 -0.000000 0.707107 255 255 255 1.000000
0.141889 -0.581873 -0.035528 -0.707107 0.000000 -0.707107 156 91 45 1.000000
0.011577 -0.310256 0.134085 -0.707107 0.000000 -0.707107 255 255 255 1.000000
0.003947 -0.516784 0.141715 0.707107 -0.000000 0.707107 152 87 41 1.000000
-0.138604 0.476233 0.244965 0.707107 -0.000000 0.707107 255 255 255 1.000000
-0.087498 -0.745371 0.193860 0.707107 -0.000000 0.707107 255 255 255 1.000000
0.001254 0.311087 0.144408 -0.707107 0.000000 -0.707107 255 255 255 1.000000
-0.179267 -0.079980 0.324928 -0.707107 0.000000 -0.707107 255 255 255 1.000000
-0.092557 -0.077802 0.238219 -0.707107 0.000000 -0.707107 255 255 255 1.000000
-0.123669 0.110659 0.230030 0.707107 -0.000000 0.707107 255 255 255 1.000000
0.237757 -0.677561 -0.146527 1.000000 0.000000 0.000000 255 255 255 1.000000
0.022341 -0.651329 0.123320 0.707107 -0.000000 0.707107 147 82 38 1.000000
-0.347281 -0.512583 -0.186793 -1.000000 0.000000 0.000000 255 255 255 1.000000
0.240468 -0.347355 -0.188626 0.000000 -0.000000 1.000000 255 255 255 1.000000
0.157705 0.339716 -0.051344 0.707107 -0.000000 0.707107 255 255 255 1.000000
0.114952 -0.326866 0.030710 0.707107 -0.000000 0.707107 152 89 44 1.000000
0.225091 -0.536085 -0.079430 0.707107 -0.000000 0.707107 162 99 54 1.000000
0.252383 0.164486 -0.205212 -1.000000 0.000000 0.000000 149 84 38 1.000000
-0.097355 0.637147 0.203716 -0.707107 0.000000 -0.707107 151 85 39 1.000000
0.225671 0.003904 -0.080009 0.707107 -0.000000 0.707107 161 97 48 1.000000
0.058078 0.766027 0.087584 -0.707107 0.000000 -0.707107 255 255 255 1.000000
0.070055 -0.183469 0.036306 0.707107 -0.000000 0.707107 255 255 255 1.000000
-0.077274 0.332019 0.183636 0.707107 -0.000000 0.707107 255 255 255 1.000000
0.274322 0.224766 -0.142077 1.000000 0.000000 0.000000 148 82 34 1.000000
-0.089393 -0.337752 0.195754 0.707107 -0.000000 0.707107 255 255 255 1.000000
-0.036179 -0.882527 0.181841 0.707107 -0.000000 0.707107 150 85 39 1.000000
-0.148209 0.431945 0.254571 0.707107 -0.000000 0.707107 255 255 255 1.000000
0.273066 0.586790 -0.216416 0.000000 0.000000 -1.000000 161 92 47 1.000000
0.067209 -0.547321 0.039152 -0.707107 0.000000 -0.707107 145 78 35 1.000000
0.178303 0.087356 -0.032641 -0.707107 0.000000 -0.707107 255 255 255 1.000000
0.024696 -0.125461 0.081665 -0.707107 0.000000 -0.707107 150 83 40 1.000000
0.134072 -0.015485 -0.027710 -0.707107 0.000000 -0.707107 148 82 36 1.000000
0.274322 -0.024793 -0.158814 1.000000 0.000000 0.000000 148 83 37 1.000000
-0.383846 -0.664746 -0.141180 -1.000000 0.000000 0.000000 143 78 32 1.000000
0.272808 -0.655474 -0.106721 0.000000 0.000000 -1.000000 255 255 255 1.000000
-0.056931 -0.022283 0.202593 -0.707107 0.000000 -0.707107 255 255 255 1.000000
0.237757 -0.220430 -0.151638 1.000000 0.000000 0.000000 255 255 255 1.000000
-0.383846 0.074194 -0.177556 -1.000000 0.000000 0.000000 153 89 40 1.000000
-0.383846 -0.790610 -0.182863 1.000000 0.000000 0.000000 134 67 24 1.000000
0.136583 -0.003709 0.009079 0.707107 -0.000000 0.707107 151 88 43 1.000000
-0.383846 0.006558 -0.141563 -1.000000 0.000000 0.000000 141 76 24 1.000000
-0.146494 -0.750014 0.252855 -0.707107 0.000000 -0.707107 138 73 27 1.000000
-0.349907 -0.157908 -0.134510 0.000000 0.000000 -1.000000 255 255 255 1.000000
0.112543 0.360711 -0.006181 -0.707107 0.000000 -0.707107 152 86 38 1.000000
0.003745 -0.784139 0.141917 0.707107 -0.000000 0.707107 154 89 45 1.000000
-0.058149 0.102579 0.203811 0.707107 -0.000000 0.707107 150 86 37 1.000000
-0.154308 -0.146579 0.260669 0.707107 -0.000000 0.707107 255 255 255 1.000000
0.128640 0.599916 -0.022278 0.707107 -0.000000 0.707107 255 255 255 1.000000
0.046859 0.352099 0.098802 -0.707107 0.000000 -0.707107 255 255 255 1.000000
0.009478 -0.471241 0.136183 -0.707107 0.000000 -0.707107 255 255 255 1.000000
-0.048989 -0.792819 0.194651 -0.707107 0.000000 -0.707107 255 255 255 1.000000
0.274322 -0.045598 -0.189742 1.000000 0.000000 0.000000 151 86 42 1.000000
0.125233 0.755569 -0.018871 -0.707107 0.000000 -0.707107 161 96 54 1.000000
-0.074915 0.381322 0.181277 0.707107 -0.000000 0.707107 255 255 255 1.000000
0.022396 -0.424196 0.083966 0.707107 -0.000000 0.707107 255 255 255 1.000000
-0.383846 -0.594261 -0.142249 -1.000000 0.000000 0.000000 143 77 31 1.000000
0.074927 -0.377277 0.031434 -0.707107 0.000000 -0.707107 152 87 43 1.000000
0.237757 0.307048 -0.187987 1.000000 0.000000 0.000000 255 255 255 1.000000
0.203158 0.526015 -0.057497 -0.707107 0.000000 -0.707107 255 255 255 1.000000
-0.020236 0.288013 0.165898 -0.707107 0.000000 -0.707107 255 255 255 1.000000
0.234994 -0.035975 -0.089333 0.707107 -0.000000 0.707107 153 88 42 1.000000
-0.121834 -0.063905 0.267496 0.707107 -0.000000 0.707107 157 92 48 1.000000
-0.092223 -0.456338 0.198584 0.707107 -0.000000 0.707107 255 255 255 1.000000
-0.198721 -0.726360 0.305083 0.707107 -0.000000 0.707107 255 255 255 1.000000
0.274322 -0.249389 -0.183490 -1.000000 0.000000 0.000000 145 81 32 1.000000
-0.383846 -0.140924 -0.183573 -1.000000 0.000000 0.000000 161 97 48 1.000000
-0.383846 -0.066750 -0.176529 -1.000000 0.000000 0.000000 156 91 45 1.000000
-0.026950 -0.339653 0.172612 0.707107 -0.000000 0.707107 157 92 48 1.000000
-0.154135 -0.802846 0.299796 0.707107 -0.000000 0.707107 140 75 31 1.000000
-0.066698 0.186935 0.173059 0.707107 -0.000000 0.707107 255 255 255 1.000000
0.107495 0.452268 0.038167 -0.707107 0.000000 -0.707107 255 255 255 1.000000
-0.376307 0.520680 -0.106721 0.000000 -0.000000 1.000000 157 91 42 1.000000
-0.383846 0.737734 -0.185088 -1.000000 0.000000 0.000000 143 78 32 1.000000
-0.383846 -0.035978 -0.197965 -1.000000 0.000000 0.000000 140 71 24 1.000000
-0.155779 0.347373 0.301441 -0.707107 0.000000 -0.707107 255 255 255 1.000000
0.143584 -0.638680 0.002078 -0.707107 0.000000 -0.707107 255 255 255 1.000000
0.176695 0.508606 -0.031033 0.707107 -0.000000 0.707107 146 80 41 1.000000
0.274322 -0.096536 -0.136099 -1.000000 0.000000 0.000000 145 80 36 1.000000
0.274322 0.323336 -0.180359 -1.000000 0.000000 0.000000 151 84 41 1.000000
0.197170 0.794901 -0.090809 -0.707107 0.000000 -0.707107 148 82 36 1.000000
-0.146945 0.317897 0.253307 -0.707107 0.000000 -0.707107 152 86 38 1.000000
0.213645 0.558729 -0.067984 0.707107 -0.000000 0.707107 152 83 40 1.000000
0.158540 -0.301771 -0.052178 -0.707107 0.000000 -0.707107 152 83 40 1.000000
-0.129285 0.713903 0.274946 0.707107 -0.000000 0.707107 154 90 40 1.000000
-0.147144 -0.040110 0.292806 -0.707107 0.000000 -0.707107 255 255 255 1.000000
-0.016955 0.188331 0.123317 -0.707107 0.000000 -0.707107 152 85 42 1.000000
0.016687 0.516235 0.089675 0.707107 -0.000000 0.707107 255 255 255 1.000000
-0.094287 -0.638363 0.200648 -0.707107 0.000000 -0.707107 153 86 43 1.000000
0.160778 0.611405 -0.054417 0.707107 -0.000000 0.707107 255 255 255 1.000000
0.241594 0.251083 -0.134510 0.000000 -0.000000 1.000000 144 78 30 1.000000
-0.074630 0.773833 0.180991 -0.707107 0.000000 -0.707107 152 85 42 1.000000
0.078239 0.672878 0.028122 -0.707107 0.000000 -0.707107 145 80 36 1.000000
-0.347281 0.702270 -0.179860 -1.000000 0.000000 0.000000 255 255 255 1.000000
0.050149 0.793457 -0.188626 0.000000 0.000000 -1.000000 150 89 48 1.000000
0.047276 0.478253 0.098385 0.707107 -0.000000 0.707107 139 82 43 1.000000
0.274322 -0.702685 -0.146682 1.000000 0.000000 0.000000 149 84 40 1.000000
0.203360 -0.832013 -0.057698 0.707107 -0.000000 0.707107 147 80 37 1.000000
0.274322 0.407483 -0.106843 -1.000000 0.000000 0.000000 152 86 38 1.000000
-0.022670 0.014150 0.168331 0.707107 -0.000000 0.707107 146 81 35 1.000000
-0.107711 0.713144 0.214073 -0.707107 0.000000 -0.707107 159 92 49 1.000000
-0.051510 -0.746112 0.197172 -0.707107 0.000000 -0.707107 255 255 255 1.000000
-0.127805 0.763203 0.234166 0.707107 -0.000000 0.707107 255 255 255 1.000000
-0.013521 0.198454 0.159183 -0.707107 0.000000 -0.707107 255 255 255 1.000000
-0.151765 0.147083 0.258126 -0.707107 0.000000 -0.707107 155 91 42 1.000000
0.021202 -0.256512 0.085160 -0.707107 0.000000 -0.707107 145 79 33 1.000000
0.100572 0.112138 0.045090 -0.707107 0.000000 -0.707107 255 255 255 1.000000
-0.034040 -0.632130 0.140402 -0.707107 0.000000 -0.707107 148 82 36 1.000000
-0.383846 -0.855646 -0.177972 -1.000000 0.000000 0.000000 147 81 32 1.000000
0.274322 0.443271 -0.177622 -1.000000 0.000000 0.000000 147 81 33 1.000000
0.272486 0.450227 -0.106721 0.000000 0.000000 -1.000000 255 255 255 1.000000
0.116241 0.544810 -0.009880 0.707107 -0.000000 0.707107 255 255 255 1.000000
0.120616 0.798390 -0.014254 -0.707107 0.000000 -0.707107 148 83 41 1.000000
-0.036291 0.823603 -0.134850 0.000000 1.000000 0.000000 163 99 59 1.000000
-0.383846 0.581394 -0.129397 1.000000 0.000000 0.000000 158 93 47 1.000000
-0.170609 -0.298267 0.316271 0.707107 -0.000000 0.707107 158 93 47 1.000000
-0.156701 0.598943 0.263062 -0.707107 0.000000 -0.707107 155 90 44 1.000000
0.207560 -0.928378 -0.061899 0.707107 -0.000000 0.707107 154 85 40 1.000000
0.082487 0.300959 0.023875 -0.707107 0.000000 -0.707107 153 87 41 1.000000
0.250523 0.799805 -0.182440 -0.707107 0.707107 0.000000 160 96 46 1.000000
-0.146799 -0.760862 0.292461 -0.707107 0.000000 -0.707107 255 255 255 1.000000
0.039113 -0.542805 0.067248 0.707107 -0.000000 0.707107 255 255 255 1.000000
0.058676 -0.166784 0.086986 0.707107 -0.000000 0.707107 160 96 56 1.000000
-0.347281 -0.411320 -0.136844 -1.000000 0.000000 0.000000 255 255 255 1.000000
-0.148423 -0.716304 0.294084 -0.707107 0.000000 -0.707107 255 255 255 1.000000
0.211959 0.243322 -0.066298 0.707107 -0.000000 0.707107 151 82 35 1.000000
-0.159586 0.672272 0.305247 -0.707107 0.000000 -0.707107 255 255 255 1.000000
0.111241 -0.064989 -0.004879 0.707107 -0.000000 0.707107 255 255 255 1.000000
0.142232 -0.686757 -0.035870 0.707107 -0.000000 0.707107 255 255 255 1.000000
0.021685 -0.587605 0.123977 0.707107 -0.000000 0.707107 159 96 51 1.000000
0.197289 0.106437 -0.090927 -0.707107 0.000000 -0.707107 148 83 37 1.000000
0.018130 0.712252 0.088231 0.707107 -0.000000 0.707107 255 255 255 1.000000
-0.129949 -0.253401 0.275610 0.707107 -0.000000 0.707107 157 93 44 1.000000
0.029160 -0.702174 0.116502 0.707107 -0.000000 0.707107 142 82 42 1.000000
0.048433 0.307966 0.097229 -0.707107 0.000000 -0.707107 255 255 255 1.000000
-0.097753 -0.151570 0.243415 0.707107 -0.000000 0.707107 150 85 39 1.000000
-0.182060 0.132011 0.288422 0.707107 -0.000000 0.707107 255 255 255 1.000000
0.187406 0.622803 -0.081045 0.707107 -0.000000 0.707107 255 255 255 1.000000
-0.031255 0.552500 0.137617 -0.707107 0.000000 -0.707107 153 84 37 1.000000
0.155525 0.694018 -0.049163 0.707107 -0.000000 0.707107 255 255 255 1.000000
-0.179373 0.049324 0.325035 0.707107 -0.000000 0.707107 137 77 29 1.000000
-0.158113 0.710932 0.303775 0.707107 -0.000000 0.707107 146 81 39 1.000000
-0.092375 0.282330 0.198736 -0.707107 0.000000 -0.707107 144 75 28 1.000000
0.034368 -0.613751 0.071994 0.707107 -0.000000 0.707107 255 255 255 1.000000
-0.082714 0.154398 0.228375 0.707107 -0.000000 0.707107 147 82 38 1.000000
0.209810 -0.510872 -0.103449 0.707107 -0.000000 0.707107 255 255 255 1.000000
-0.107189 -0.831853 0.252850 0.707107 -0.000000 0.707107 157 92 46 1.000000
0.274322 -0.595543 -0.189029 1.000000 0.000000 0.000000 144 78 29 1.000000
-0.171363 0.798739 0.316608 0.000000 -1.000000 -0.000000 255 255 255 1.000000
0.144381 -0.115931 -0.038019 0.707107 -0.000000 0.707107 255 255 255 1.000000
0.042836 0.297060 0.063525 -0.707107 0.000000 -0.707107 142 76 30 1.000000
0.107594 0.487222 0.038067 -0.707107 0.000000 -0.707107 255 255 255 1.000000
0.063712 0.592429 0.081949 0.707107 -0.000000 0.707107 157 96 55 1.000000
-0.146341 0.002182 0.252703 -0.707107 0.000000 -0.707107 145 78 39 1.000000
0.005236 -0.223545 0.140425 0.707107 -0.000000 0.707107 146 82 42 1.000000
0.071931 -0.756882 0.073730 -0.707107 0.000000 -0.707107 255 255 255 1.000000
0.141668 0.794345 -0.134510 0.000000 -0.000000 1.000000 154 88 42 1.000000
-0.067060 0.616315 0.212722 -0.707107 0.000000 -0.707107 255 255 255 1.000000
-0.361907 -0.713785 -0.106903 -1.000000 0.000000 0.000000 255 255 255 1.000000
0.095847 -0.217181 0.049814 -0.707107 0.000000 -0.707107 255 255 255 1.000000
0.237757 -0.505064 -0.153836 -1.000000 0.000000 0.000000 145 80 38 1.000000
-0.227390 0.823603 -0.142067 0.000000 -1.000000 -0.000000 151 86 40 1.000000
-0.055848 -0.215615 0.162209 0.707107 -0.000000 0.707107 255 255 255 1.000000
0.236767 -0.577749 -0.091106 0.707107 -0.000000 0.707107 150 85 39 1.000000
-0.383846 0.477037 -0.159384 -1.000000 0.000000 0.000000 156 90 42 1.000000
0.274322 0.046588 -0.111099 -1.000000 0.000000 0.000000 137 77 29 1.000000
0.173107 0.287546 -0.027445 -0.707107 0.000000 -0.707107 255 255 255 1.000000
0.210448 0.143072 -0.104086 -0.707107 0.000000 -0.707107 162 99 46 1.000000
-0.102380 -0.896967 0.208742 -0.707107 0.000000 -0.707107 135 69 21 1.000000
0.097394 -0.798167 0.008968 0.707107 -0.000000 0.707107 255 255 255 1.000000
0.252383 0.414764 -0.216197 -1.000000 0.000000 0.000000 143 78 32 1.000000
0.252383 -0.052429 -0.128236 1.000000 0.000000 0.000000 255 255 255 1.000000
-0.383846 0.380739 -0.179693 1.000000 0.000000 0.000000 146 80 31 1.000000
0.115381 0.823603 -0.160904 0.000000 1.000000 0.000000 148 78 38 1.000000
0.272577 0.094353 -0.106721 0.000000 0.000000 -1.000000 255 255 255 1.000000
-0.364783 -0.197088 -0.103790 -0.622968 0.000000 -0.782247 206 212 222 1.000000
0.206454 0.570420 -0.100092 0.707107 -0.000000 0.707107 255 255 255 1.000000
-0.347281 0.239372 -0.168654 -1.000000 0.000000 0.000000 255 255 255 1.000000
-0.024666 -0.829694 0.170327 0.707107 -0.000000 0.707107 149 83 37 1.000000
0.214847 0.021951 -0.108485 -0.707107 0.000000 -0.707107 147 84 39 1.000000
0.105367 -0.895482 0.040294 -0.707107 0.000000 -0.707107 255 255 255 1.000000
-0.383846 0.315898 -0.152740 -1.000000 0.000000 0.000000 152 86 38 1.000000
0.196337 -0.154342 -0.089975 -0.707107 0.000000 -0.707107 146 83 36 1.000000
-0.024955 -0.457499 0.131316 0.707107 -0.000000 0.707107 255 255 255 1.000000
0.216474 0.319582 -0.070812 0.707107 -0.000000 0.707107 156 90 44 1.000000
-0.155517 -0.189264 0.345953 0.554401 -0.365868 -0.747516 201 207 217 1.000000
-0.182045 -0.887161 0.288406 0.707107 -0.000000 0.707107 255 255 255 1.000000
-0.349714 0.508009 -0.188626 0.000000 0.000000 -1.000000 150 85 39 1.000000
-0.046899 0.522413 0.192560 -0.707107 0.000000 -0.707107 255 255 255 1.000000
-0.031269 0.164033 0.176931 -0.707107 0.000000 -0.707107 255 255 255 1.000000
-0.370771 -0.582070 -0.216416 0.000000 0.000000 -1.000000 149 85 36 1.000000
0.252383 0.523188 -0.200715 -1.000000 0.000000 0.000000 158 93 47 1.000000
0.126472 -0.839361 0.019189 0.707107 -0.000000 0.707107 150 86 46 1.000000
-0.383846 -0.084080 -0.140924 -1.000000 0.000000 0.000000 148 83 37 1.000000
-0.044707 -0.165884 0.190368 0.707107 -0.000000 0.707107 154 91 46 1.000000
0.255351 0.018936 -0.216416 0.000000 0.000000 -1.000000 146 82 33 1.000000
-0.033692 -0.138842 0.140054 -0.707107 0.000000 -0.707107 152 86 40 1.000000
-0.160556 -0.108448 0.266917 0.707107 -0.000000 0.707107 255 255 255 1.000000
-0.359142 -0.556209 -0.134510 0.000000 0.000000 -1.000000 255 255 255 1.000000
-0.077490 0.209748 0.223151 -0.707107 0.000000 -0.707107 255 255 255 1.000000
-0.102361 -0.708981 0.208723 0.707107 -0.000000 0.707107 255 255 255 1.000000
-0.128167 -0.100639 0.234528 0.707107 -0.000000 0.707107 255 255 255 1.000000
-0.188054 0.173633 0.317441 -0.707107 -0.000000 0.707107 152 86 38 1.000000
0.220352 -0.313727 -0.074690 -0.707107 0.000000 -0.707107 255 255 255 1.000000
0.006869 0.823603 -0.183294 0.000000 1.000000 0.000000 151 87 47 1.000000
0.274322 0.228636 -0.199539 1.000000 0.000000 0.000000 156 91 45 1.000000
0.090319 -0.103889 0.016043 0.707107 -0.000000 0.707107 255 255 255 1.000000
-0.383846 -0.471205 -0.199811 1.000000 0.000000 0.000000 152 85 42 1.000000
0.136811 0.720833 -0.030450 -0.707107 0.000000 -0.707107 154 88 40 1.000000
-0.361907 -0.886291 -0.120419 -1.000000 0.000000 0.000000 255 255 255 1.000000
-0.139549 -0.362859 0.285210 0.707107 -0.000000 0.707107 156 93 46 1.000000
0.191521 0.187169 -0.085159 0.707107 -0.000000 0.707107 255 255 255 1.000000
-0.383846 0.217276 -0.133468 1.000000 0.000000 0.000000 145 79 31 1.000000
-0.103962 0.823603 -0.138212 0.000000 1.000000 0.000000 157 92 48 1.000000
0.237757 0.006171 -0.135026 1.000000 0.000000 0.000000 255 255 255 1.000000
-0.043282 0.269982 0.188943 -0.707107 0.000000 -0.707107 255 255 255 1.000000
0.274322 -0.832013 -0.189812 -1.000000 0.000000 0.000000 156 91 45 1.000000
0.125654 0.179893 -0.019292 -0.707107 0.000000 -0.707107 156 87 40 1.000000
-0.098411 -0.018148 0.244072 0.707107 -0.000000 0.707107 155 90 46 1.000000
-0.096066 -0.904188 0.241728 -0.707107 0.000000 -0.707107 255 255 255 1.000000
-0.383846 0.543442 -0.178549 -1.000000 0.000000 0.000000 140 74 28 1.000000
-0.089554 0.282123 0.235215 -0.707107 0.000000 -0.707107 255 255 255 1.000000
-0.160107 -0.535932 0.266469 0.707107 -0.000000 0.707107 255 255 255 1.000000
0.145041 0.787039 -0.183940 0.000000 -1.000000 -0.000000 255 255 255 1.000000
0.147351 0.622172 -0.001689 0.707107 -0.000000 0.707107 150 89 49 1.000000
0.274322 -0.784260 -0.185958 -1.000000 0.000000 0.000000 155 90 48 1.000000
-0.148260 -0.397999 0.254621 0.707107 -0.000000 0.707107 255 255 255 1.000000
-0.383846 0.218604 -0.177693 -1.000000 0.000000 0.000000 152 86 38 1.000000
0.195039 0.678507 -0.049378 -0.707107 0.000000 -0.707107 255 255 255 1.000000
0.109704 -0.509948 -0.003343 0.707107 -0.000000 0.707107 255 255 255 1.000000
-0.030081 0.458840 0.136442 -0.707107 0.000000 -0.707107 162 93 46 1.000000
0.147374 -0.928584 -0.038844 0.000000 1.000000 0.000000 255 255 255 1.000000
0.152490 0.178407 -0.046128 -0.707107 0.000000 -0.707107 149 80 33 1.000000
0.252383 -0.403545 -0.213423 1.000000 0.000000 0.000000 255 255 255 1.000000
-0.183214 0.823603 -0.194303 0.000000 -1.000000 -0.000000 148 82 36 1.000000
-0.383846 -0.719932 -0.175878 1.000000 0.000000 0.000000 141 76 30 1.000000
-0.043043 -0.774790 0.149405 0.707107 -0.000000 0.707107 255 255 255 1.000000
0.207050 0.676575 -0.100689 0.707107 -0.000000 0.707107 255 255 255 1.000000
0.112044 -0.251208 0.033618 -0.707107 0.000000 -0.707107 255 255 255 1.000000
0.252383 0.774989 -0.117205 1.000000 0.000000 0.000000 255 255 255 1.000000
-0.070591 -0.102036 0.176952 -0.707107 0.000000 -0.707107 151 85 39 1.000000
0.017030 0.620924 0.128631 -0.707107 0.000000 -0.707107 255 255 255 1.000000
0.136798 -0.300492 0.008863 0.707107 -0.000000 0.707107 152 89 44 1.000000
-0.361907 -0.587145 -0.108602 1.000000 0.000000 0.000000 162 98 49 1.000000
0.133904 0.271160 -0.027542 -0.707107 0.000000 -0.707107 147 78 33 1.000000
0.029847 0.171849 0.115815 -0.707107 0.000000 -0.707107 255 255 255 1.000000
