ply
format ascii 1.0
element vertex 1275
property float x
property float y
property float z
property uchar red
property uchar green
property uchar blue
end_header
0.139731 0.004478 -0.393484 127 127 0
0.324530 0.017506 0.273735 76 0 153
-0.158002 -0.085087 0.378583 0 255 0
-0.370748 0.202290 0.300185 127 0 127
-0.336284 -0.301980 -0.330241 76 0 153
0.349962 -0.123776 -0.336294 153 0 76
0.110223 -0.016939 -0.301079 76 153 0
-0.171789 0.099943 -0.298167 76 153 0
0.382922 -0.393931 -0.321067 153 0 76
-0.311131 -0.054439 0.407178 0 255 0
0.043766 0.135568 0.091619 255 0 0
0.341131 -0.771186 0.304870 76 0 153
0.368456 -0.332069 -0.272084 153 0 76
-0.370082 0.021136 0.244122 0 127 127
-0.332337 -0.018976 0.349988 153 76 0
0.313364 -0.056913 0.407178 0 255 0
0.383370 0.136211 -0.393484 127 127 0
-0.289118 0.135659 -0.364889 127 127 0
0.309868 -0.128655 -0.298776 153 0 76
0.344795 0.117606 0.199355 76 153 0
0.016897 0.154632 -0.127835 255 0 0
0.218883 -0.096060 0.407178 0 255 0
-0.068034 0.021188 -0.185712 0 255 0
-0.257475 0.030720 0.082801 127 0 127
-0.341487 -0.011688 -0.287610 76 0 153
0.344795 0.151236 -0.220934 76 153 0
0.052264 0.020900 0.378583 0 255 0
-0.126394 0.187993 -0.388778 127 127 0
0.369512 0.202290 0.024683 127 0 127
-0.407005 0.150041 0.378583 0 255 0
0.344795 0.151576 -0.059422 76 153 0
0.382922 0.158135 0.343575 76 0 153
0.053938 -0.093885 0.378583 0 255 0
0.202524 0.034409 0.187949 255 0 0
-0.271482 0.054271 0.311861 0 127 127
-0.356835 -0.493931 -0.274220 76 0 153
-0.213868 0.126037 0.184452 255 0 0
-0.381113 -0.117022 0.406832 0 255 0
-0.137099 0.202290 -0.046758 127 0 127
-0.404477 0.201344 -0.350591 127 0 127
-0.036090 0.134765 0.340456 0 127 127
0.372891 -0.074780 -0.393484 127 127 0
0.328320 -0.553057 0.299520 76 0 153
-0.269861 0.110982 0.311861 0 127 127
-0.022816 0.040251 -0.135722 127 0 127
-0.030093 -0.104941 0.378583 0 255 0
-0.129217 0.202290 -0.306188 127 0 127
0.323859 -0.209041 -0.266735 153 0 76
-0.311993 0.156442 0.326159 153 76 0
0.341709 0.023995 0.192715 0 0 255
0.272299 0.173695 0.192214 127 0 127
-0.344464 0.030720 0.065963 0 127 127
0.379386 -0.760300 0.349988 76 0 153
0.198903 -0.002750 0.159354 0 0 255
0.340523 0.202290 0.199538 127 0 127
0.011580 0.202290 -0.022939 127 0 127
-0.330798 -0.570819 -0.322623 76 0 153
0.379548 0.202290 0.089981 127 0 127
0.245220 0.191477 0.375932 127 0 127
0.105784 -0.007407 0.159448 0 0 255
-0.271359 0.202290 0.325941 127 0 127
-0.192110 0.173695 -0.063737 127 0 127
-0.102993 0.080789 -0.174255 0 255 0
0.400916 -0.057168 0.407178 0 255 0
-0.212076 -0.006889 0.340456 0 127 127
-0.223174 -0.033582 -0.364889 127 127 0
-0.347795 0.122920 -0.155192 0 255 0
-0.345509 -0.734176 0.289027 153 76 0
0.382922 -0.347747 0.334223 76 0 153
0.239946 0.102640 -0.034952 127 127 0
0.322389 0.143883 -0.364889 127 127 0
0.334517 0.019517 0.378583 0 255 0
0.004203 0.007108 -0.212382 255 0 0
0.186040 0.164722 -0.326762 76 153 0
-0.369833 0.100501 0.378583 0 255 0
-0.365317 0.202290 -0.204570 127 0 127
-0.198155 0.030531 0.187949 0 0 255
0.050557 0.128812 -0.393484 127 127 0
-0.068266 0.202290 -0.316768 127 0 127
-0.084052 0.173695 0.006878 127 0 127
0.335828 -0.156254 0.278134 76 0 153
0.274510 0.009933 0.159354 0 0 255
0.078099 0.155001 -0.364889 127 127 0
-0.213169 0.087575 -0.393484 127 127 0
-0.311640 -0.007407 -0.212089 255 0 0
-0.084388 0.059998 -0.326762 76 153 0
0.205213 0.070379 -0.174255 0 255 0
-0.055536 0.151876 -0.126255 0 255 0
0.173357 0.202290 -0.219630 127 0 127
0.149973 0.077384 -0.174255 0 255 0
0.331195 -0.265330 -0.336294 153 0 76
-0.208072 -0.117022 -0.370706 127 127 0
0.058844 0.138869 0.290505 255 0 0
-0.011113 0.135568 -0.253249 0 255 0
0.089595 0.013107 -0.212382 255 0 0
0.209396 0.077464 -0.393484 127 127 0
-0.350351 -0.832325 -0.317278 76 0 153
-0.347599 0.021188 -0.144619 0 0 255
0.382922 -0.423560 -0.278391 153 0 76
-0.215182 0.072014 0.168886 255 0 0
0.119512 0.055993 0.311861 0 127 127
0.373484 -0.198935 0.279990 76 0 153
-0.341487 0.023635 0.198617 0 127 127
-0.095162 -0.007407 0.160059 0 0 255
-0.073788 0.202290 0.354888 127 0 127
0.157109 0.173695 -0.135598 127 0 127
-0.028597 0.202290 -0.198717 127 0 127
0.344795 0.071328 0.194140 76 153 0
0.292753 0.202290 -0.162761 127 0 127
-0.232944 0.032408 -0.164723 0 255 0
0.382922 -0.085889 -0.270313 153 0 76
-0.041518 0.173695 0.258224 127 0 127
0.163311 -0.060296 0.378583 0 255 0
-0.012328 0.030720 -0.023391 127 0 127
0.353640 -0.036139 0.349988 76 0 153
0.146647 0.173695 0.112251 127 0 127
-0.136558 -0.016939 0.339986 0 127 127
-0.327353 0.173695 0.051145 127 0 127
-0.131097 0.040251 -0.035835 127 0 127
-0.046418 0.060019 0.311861 0 127 127
-0.091024 0.025220 -0.298167 76 153 0
-0.216677 0.173695 -0.009893 127 0 127
0.066903 0.030188 -0.326762 76 153 0
-0.341487 0.143215 -0.067006 0 127 127
-0.379614 0.019090 -0.324463 76 0 153
-0.139628 0.069881 0.340456 0 127 127
-0.012242 0.176529 -0.382944 127 127 0
-0.270346 0.086078 0.378583 0 255 0
0.337773 -0.769669 -0.336294 153 0 76
0.085436 0.173695 0.154860 127 0 127
-0.210672 0.202290 -0.309239 127 0 127
-0.066806 -0.000055 -0.145660 255 0 0
0.379796 -0.783706 -0.291720 153 0 76
0.377335 -0.831777 0.349988 76 0 153
-0.341487 0.019035 0.112384 127 0 127
-0.306861 -0.089831 0.378583 0 255 0
-0.309639 -0.182710 -0.312869 76 0 153
0.340580 -0.835046 0.309958 76 0 153
-0.001888 0.067290 -0.298167 76 153 0
-0.341487 0.141753 0.160473 0 127 127
0.329336 -0.325323 0.285485 76 0 153
-0.011769 0.154632 -0.052688 0 255 0
0.024057 0.021188 0.182787 127 127 0
-0.286286 0.126037 0.185079 255 0 0
0.211010 0.202290 -0.346509 127 0 127
-0.404439 0.173695 -0.028439 127 0 127
-0.066204 0.202290 0.284461 127 0 127
0.344795 0.075444 -0.208872 76 153 0
0.346300 -0.250159 -0.268523 153 0 76
-0.384379 0.131397 0.026758 0 0 255
0.298576 -0.103031 0.407178 0 255 0
-0.256607 0.202290 -0.024676 127 0 127
-0.355784 0.115655 0.282169 153 76 0
0.142313 0.202290 0.327519 127 0 127
-0.307159 0.202290 -0.150836 127 0 127
0.082709 0.195798 0.371050 127 0 127
0.266159 -0.007407 -0.146147 255 0 0
0.039863 0.073287 0.340456 0 127 127
-0.053042 0.173149 0.407178 0 255 0
-0.171243 0.015503 -0.364889 127 127 0
-0.302662 0.173695 -0.007703 127 0 127
-0.237691 -0.086697 0.378583 0 255 0
0.316587 0.202290 0.111409 127 0 127
-0.311575 -0.047551 -0.264082 76 0 153
0.234347 0.173695 0.013237 127 0 127
-0.175115 0.202290 -0.129354 127 0 127
-0.143429 0.168168 0.311861 0 127 127
0.007137 -0.117022 -0.366567 127 127 0
-0.290463 0.173695 0.224122 127 0 127
0.344795 0.020216 -0.101025 76 153 0
0.074369 0.044068 0.340456 0 127 127
0.371940 -0.016939 0.085808 76 153 0
0.336626 -0.456109 -0.336294 153 0 76
-0.024860 -0.039523 -0.393484 127 127 0
-0.312441 -0.449240 0.315751 153 76 0
-0.269634 0.040251 0.011023 127 0 127
-0.060583 -0.084880 -0.393484 127 127 0
-0.303360 -0.003892 0.283576 153 76 0
0.019996 0.173695 0.366683 127 0 127
0.075810 0.124377 -0.155192 0 255 0
0.409006 0.173695 0.162870 127 0 127
-0.156778 0.202290 -0.249688 127 0 127
-0.373660 0.202290 0.114165 127 0 127
-0.152913 0.160305 -0.364889 127 127 0
0.231411 0.030720 -0.002753 127 0 127
-0.384379 0.130917 0.100562 0 0 255
0.406825 0.173695 0.214899 127 0 127
-0.380943 0.026406 -0.028059 0 0 255
0.411517 0.180310 0.288914 127 0 127
0.055996 0.052479 0.187949 127 127 0
0.382922 -0.053048 -0.306364 153 0 76
-0.345932 0.060392 -0.336294 76 0 153
0.256333 -0.075571 -0.393484 127 127 0
0.382922 -0.308136 -0.309214 153 0 76
-0.408209 -0.043209 0.384457 0 255 0
0.411517 0.178736 0.375317 0 255 0
-0.331425 -0.031732 -0.336294 76 0 153
-0.214350 0.069251 0.311861 0 127 127
0.307282 -0.069186 -0.265107 153 0 76
0.296647 0.007059 0.311861 0 127 127
-0.263721 -0.007407 -0.162032 255 0 0
0.055493 0.030720 -0.006652 127 0 127
0.283223 0.027268 0.378583 0 255 0
0.158022 0.040251 0.069788 127 0 127
-0.408209 0.176424 0.290021 127 0 127
0.034623 -0.082873 -0.393484 127 127 0
-0.061842 0.202290 0.133168 127 0 127
0.050033 0.140197 0.378583 0 255 0
0.230978 0.125309 0.187949 255 0 0
0.110685 0.202290 0.268724 127 0 127
0.382922 -0.235030 -0.303833 153 0 76
-0.225758 0.173695 -0.222951 127 0 127
-0.311113 -0.272097 0.325087 153 76 0
0.335005 0.025187 -0.179021 255 0 0
-0.080515 0.173695 0.052273 127 0 127
0.101925 0.061708 0.378583 0 255 0
-0.189999 0.021188 -0.174823 255 0 0
0.237203 0.202290 -0.130785 127 0 127
0.382922 -0.484961 0.297317 76 0 153
0.244626 0.109541 -0.393484 127 127 0
0.001654 0.161301 -0.325038 0 255 0
-0.112980 0.037293 -0.393484 127 127 0
-0.150316 -0.074465 -0.393484 127 127 0
-0.135983 0.117269 -0.174255 0 255 0
-0.229911 0.155109 0.340456 0 127 127
0.283833 0.173695 -0.278779 127 0 127
0.188927 0.155176 0.311861 0 127 127
0.373390 0.133239 0.018914 76 153 0
0.040340 -0.036392 0.378583 0 255 0
-0.371549 -0.224798 -0.314810 76 0 153
0.123570 0.153997 -0.364889 127 0 127
-0.359071 -0.887307 0.321314 153 76 0
-0.091157 0.140048 0.340456 0 127 127
-0.338696 -0.851749 -0.277727 76 0 153
0.382922 -0.527869 0.307185 76 0 153
-0.344679 -0.714874 -0.321530 76 0 153
-0.319132 -0.749218 -0.292986 76 0 153
0.188863 0.202290 0.049895 127 0 127
0.299354 0.202290 -0.244100 127 0 127
0.277789 0.173695 0.257481 127 0 127
0.287120 0.157241 0.378583 76 0 153
0.373390 0.027493 -0.004896 76 153 0
0.382922 0.020751 -0.267040 153 0 76
-0.313418 0.025690 -0.298167 76 153 0
0.289676 0.086992 -0.326762 76 153 0
0.065635 0.114745 0.340456 0 127 127
0.372379 0.166174 0.407178 0 255 0
0.120674 0.112706 -0.298167 76 153 0
0.106349 -0.072442 0.378583 0 255 0
-0.289146 0.118710 -0.298167 76 153 0
0.096229 0.030720 -0.052474 127 0 127
-0.220959 0.147044 -0.363173 76 0 153
-0.320727 -0.824327 0.306973 153 76 0
-0.005078 0.048527 0.340456 0 127 127
0.256868 0.152614 -0.393484 127 127 0
-0.049937 -0.007407 0.162973 0 0 255
0.184057 0.030720 0.135730 127 0 127
-0.321444 -0.089893 -0.329488 76 0 153
0.230242 0.173695 0.134945 127 0 127
0.373390 0.150144 0.195041 76 153 0
0.373390 0.037345 0.222626 76 153 0
-0.140911 0.038106 0.178418 255 0 0
0.297307 0.173695 0.051766 127 0 127
-0.243684 0.173695 0.067553 127 0 127
-0.317074 -0.662820 -0.301981 76 0 153
0.344795 0.063910 0.247914 76 153 0
-0.341487 0.023867 0.287790 153 76 0
0.224042 -0.113349 -0.393484 127 127 0
-0.243765 0.021188 0.180127 127 127 0
-0.314441 0.202290 0.088417 127 0 127
0.259137 0.136741 -0.326762 76 153 0
0.382922 0.122456 0.301036 76 0 153
0.031470 0.187993 -0.392364 127 127 0
-0.341487 -0.632208 -0.323747 76 0 153
0.279853 0.021188 0.223584 127 127 0
0.358569 -0.281717 0.283589 76 0 153
-0.355784 0.074448 -0.120446 0 0 255
0.239946 0.044290 0.109087 127 0 127
0.197955 0.022822 0.378583 0 255 0
0.111857 0.154266 0.340456 0 127 127
-0.387121 -0.057068 -0.393484 127 127 0
-0.179819 0.202290 0.174930 127 0 127
0.382322 0.173695 -0.110514 127 0 127
-0.009334 0.202290 -0.105686 127 0 127
-0.322003 -0.614462 0.294964 153 76 0
-0.178838 0.202290 0.086725 127 0 127
-0.152935 -0.006725 -0.145660 255 0 0
-0.354923 -0.337243 0.340628 153 76 0
-0.316382 -0.300427 0.291172 153 76 0
-0.049619 0.173695 0.191124 0 255 0
-0.341569 -0.082649 0.274345 153 76 0
-0.230614 0.013873 -0.364889 127 127 0
-0.018294 0.202290 -0.149749 127 0 127
0.373853 -0.117022 0.384719 0 255 0
0.259010 0.067572 -0.071413 127 127 0
0.314614 -0.237815 0.303410 76 0 153
0.378824 0.007687 0.378583 0 255 0
-0.342937 0.106526 -0.288635 76 153 0
-0.341487 0.066288 0.193674 255 0 0
0.058844 0.152699 -0.206863 255 0 0
0.150709 0.202290 0.164083 127 0 127
-0.061303 0.102191 -0.174255 0 255 0
-0.372332 0.202290 -0.263874 127 0 127
0.145873 0.202290 -0.174183 127 0 127
-0.297816 0.073285 0.340456 0 127 127
0.341225 -0.849869 -0.336042 153 0 76
-0.160819 -0.029986 0.378583 0 255 0
0.273673 -0.033291 0.378583 0 255 0
0.344795 0.116289 -0.246184 76 153 0
-0.168847 0.047616 -0.207616 0 255 0
0.046291 0.202290 0.050051 127 0 127
0.215456 0.173695 0.283296 127 0 127
-0.103026 0.173695 -0.186276 127 0 127
-0.252098 0.173695 -0.261184 127 0 127
0.379033 -0.839212 -0.294134 153 0 76
0.330873 0.173695 0.364759 127 0 127
0.295269 -0.109206 -0.393484 127 127 0
-0.024944 0.128331 0.407178 0 255 0
-0.408209 0.174336 -0.097743 127 0 127
0.169672 0.143863 -0.364889 127 127 0
-0.183408 0.118640 0.340456 0 127 127
-0.000585 0.202290 0.242184 127 0 127
-0.036473 0.173073 -0.086844 0 255 0
0.218156 0.124873 -0.174255 0 255 0
0.053540 0.101174 -0.298167 76 153 0
0.073769 -0.016939 0.327891 0 127 127
-0.257498 0.144068 0.377178 0 255 0
-0.347371 -0.385022 0.281682 153 76 0
0.102072 0.173695 -0.110106 127 0 127
-0.136775 0.093490 0.407178 0 255 0
-0.333893 -0.414917 0.341165 153 76 0
0.187475 -0.022316 0.378583 0 255 0
0.039353 0.030720 0.140230 127 0 127
-0.279213 0.202290 -0.298791 127 0 127
-0.355784 0.097734 -0.046443 0 0 255
-0.370082 0.053234 -0.213946 0 127 127
0.330969 -0.599056 0.297386 76 0 153
0.317423 0.202290 -0.293122 127 0 127
0.374575 0.045503 -0.364889 127 127 0
-0.408209 0.013054 -0.393479 127 127 0
-0.361166 -0.096891 -0.266757 76 0 153
0.174320 0.082640 -0.364889 127 127 0
-0.025704 0.202290 -0.286890 127 0 127
0.373390 0.065120 -0.043818 76 153 0
-0.065182 0.063678 0.378583 0 255 0
-0.365271 0.181304 -0.393484 127 127 0
-0.345115 -0.434424 0.282459 153 76 0
0.140761 0.160268 -0.326762 76 153 0
0.018549 -0.016554 -0.393484 127 127 0
0.187517 0.173695 -0.025595 127 0 127
-0.379614 0.070590 -0.266751 76 0 153
0.173602 0.030241 -0.326762 76 153 0
-0.056811 0.063577 -0.364889 127 127 0
0.344795 0.051083 -0.281136 153 0 76
-0.365234 0.101248 -0.364889 127 127 0
-0.020525 0.030720 0.115264 127 0 127
0.341985 -0.597643 -0.283630 153 0 76
0.383818 0.193789 -0.360186 127 0 127
-0.361434 -0.563719 0.329952 153 76 0
0.329174 -0.001676 -0.364889 127 127 0
0.324970 -0.476006 0.308388 76 0 153
0.210809 0.173695 -0.154464 127 0 127
0.170169 0.202290 0.361409 127 0 127
0.051879 0.051188 -0.364889 127 127 0
-0.193171 0.040251 0.030628 127 0 127
-0.135250 0.100020 -0.393484 127 127 0
-0.278528 0.021188 0.222321 127 127 0
-0.008191 -0.008162 0.340456 0 127 127
0.009371 0.173695 -0.164486 255 0 0
0.236031 -0.058996 0.378583 0 255 0
-0.251994 0.173695 -0.116231 127 0 127
-0.353677 -0.780962 -0.279595 76 0 153
0.382922 -0.155326 -0.335695 153 0 76
0.214522 0.022245 -0.179021 255 0 0
-0.108546 0.101880 0.340456 0 127 127
-0.158946 0.173695 0.247628 127 0 127
0.078571 -0.007407 -0.175788 255 0 0
0.283858 0.187993 0.406900 0 255 0
-0.177417 0.045149 0.221310 127 127 0
-0.018431 0.030139 -0.326762 76 153 0
0.066172 0.073238 -0.326762 76 153 0
0.065209 0.173695 -0.075395 127 0 127
-0.125880 0.040251 0.047010 127 0 127
-0.303360 0.055491 -0.262865 76 0 153
-0.025939 0.021188 -0.175926 0 255 0
0.152037 0.018565 0.311861 0 127 127
0.222273 0.173695 0.177494 127 0 127
-0.367124 -0.607276 0.315549 153 76 0
-0.246603 -0.108200 -0.393484 127 127 0
0.006281 0.083408 -0.174255 0 255 0
0.180271 0.095962 -0.298167 76 153 0
-0.230693 0.085310 -0.298167 76 153 0
0.301111 0.092791 -0.393484 127 127 0
-0.371112 -0.068466 0.378583 0 255 0
0.218342 0.202290 -0.289402 127 0 127
0.306668 0.029900 -0.264764 153 0 76
0.031190 0.126037 0.171085 255 0 0
-0.278311 -0.033274 0.378583 0 255 0
-0.114083 0.164330 -0.298167 127 0 127
0.296252 0.173695 0.133774 127 0 127
0.027704 -0.072479 0.407178 0 255 0
0.382922 0.026320 0.307567 76 0 153
0.169858 0.005243 -0.364889 127 127 0
-0.332620 0.173695 -0.040220 127 0 127
-0.237154 0.040881 0.340456 0 127 127
-0.307271 -0.200755 0.306212 153 76 0
-0.194287 0.202290 -0.194627 127 0 127
0.227637 0.044820 0.340456 0 127 127
-0.041221 0.202290 0.329171 127 0 127
0.239946 0.077369 0.152783 127 127 0
0.236094 0.065172 -0.298167 76 153 0
0.411517 0.179886 -0.280898 127 0 127
-0.184767 0.074732 -0.364889 127 127 0
-0.043604 0.160804 -0.326762 76 153 0
0.156238 0.173695 -0.088288 127 0 127
0.011186 0.138780 0.289358 255 0 0
-0.379614 -0.029615 0.297901 153 76 0
0.055936 -0.012977 -0.364889 127 127 0
0.022113 0.135568 -0.068781 255 0 0
-0.260626 0.025592 0.407178 0 255 0
0.206119 0.015225 -0.393484 127 127 0
0.129465 0.114478 0.340456 0 127 127
-0.063871 0.202290 0.086893 127 0 127
0.312208 -0.182471 -0.301259 153 0 76
-0.168553 0.202290 0.312309 127 0 127
-0.269997 0.122279 -0.155192 0 255 0
0.197659 0.162810 -0.393484 127 127 0
0.021047 0.135568 0.211741 255 0 0
0.071141 0.169010 -0.326762 76 153 0
-0.353458 0.030720 -0.102066 0 127 127
-0.067661 0.013278 0.311861 0 127 127
-0.344080 0.157152 -0.336294 76 0 153
-0.189503 0.117072 0.407178 0 255 0
-0.270134 0.202290 0.117770 127 0 127
-0.384379 0.033986 0.130220 0 0 255
-0.384379 0.085873 0.102094 0 0 255
-0.408209 0.190762 0.369827 127 0 127
0.247306 0.126037 0.104059 127 127 0
0.344795 0.011962 0.237640 76 153 0
-0.343138 -0.504708 0.339996 153 76 0
0.169076 0.173695 0.202710 127 0 127
0.234890 -0.038193 -0.393484 127 127 0
0.123485 0.202290 0.073201 127 0 127
-0.303360 -0.009972 -0.315774 76 0 153
0.135986 0.046340 -0.298167 76 153 0
-0.008992 0.010372 0.378583 0 255 0
-0.353255 0.202290 0.263128 127 0 127
0.010526 0.196639 -0.355464 127 0 127
0.382922 -0.110838 0.312023 76 0 153
0.152704 0.173695 -0.278263 127 0 127
-0.095962 -0.022519 -0.364889 127 127 0
-0.264853 0.173695 -0.351063 127 0 127
-0.393949 0.021199 0.378583 0 255 0
-0.033419 -0.067935 0.407178 0 255 0
-0.055531 0.135568 0.060787 0 255 0
0.235569 0.091789 0.340456 0 127 127
0.028021 0.030720 0.060790 127 0 127
-0.408209 0.175783 -0.319014 127 0 127
-0.156452 0.021420 0.340456 0 127 127
-0.098852 0.156564 -0.364889 127 127 0
-0.121553 0.202290 0.092858 127 0 127
0.190705 0.173695 0.092701 127 0 127
0.256041 0.093192 0.187949 255 0 0
-0.019716 0.022134 0.192715 127 127 0
-0.382129 0.069127 -0.393484 127 127 0
0.306668 -0.051609 0.307671 76 0 153
0.347455 -0.016939 -0.143131 76 153 0
-0.249167 0.173695 0.205400 127 0 127
0.264662 0.202290 0.122187 127 0 127
0.382922 -0.053322 0.319416 76 0 153
0.139130 -0.062789 -0.393484 127 127 0
0.382922 -0.721529 0.338363 76 0 153
0.164876 0.202290 0.280912 127 0 127
-0.370082 0.138482 -0.225558 0 127 127
0.060881 0.173695 0.121711 255 0 0
-0.326717 -0.889863 -0.284877 76 0 153
0.106256 0.202290 -0.221760 127 0 127
0.382318 0.173695 0.253286 127 0 127
0.344795 0.095486 -0.046315 76 153 0
-0.370044 -0.465037 0.306871 153 76 0
0.348835 0.154603 -0.288635 76 153 0
0.262585 0.031535 -0.364889 127 127 0
0.033875 0.021188 -0.186106 0 255 0
0.013365 0.202290 0.118401 127 0 127
0.343970 -0.905921 -0.336294 153 0 76
-0.400707 0.146386 -0.364889 127 127 0
-0.036473 0.172532 -0.227321 0 255 0
-0.151756 0.079367 -0.326762 76 153 0
0.358280 0.202290 -0.183449 127 0 127
0.373390 -0.012663 0.020951 76 153 0
-0.208427 0.040251 -0.124754 127 0 127
0.227818 0.173695 -0.050632 127 0 127
0.208816 0.202290 -0.183038 127 0 127
-0.353243 0.038925 -0.288635 0 127 127
-0.018200 0.135568 0.002443 0 255 0
0.095896 0.022066 -0.298167 76 153 0
0.376956 -0.887521 0.349988 76 0 153
0.291027 0.082610 0.378583 0 255 0
0.373390 0.134348 -0.134413 76 153 0
0.275627 0.173695 0.014473 127 0 127
0.334027 -0.063986 -0.393484 127 127 0
0.009983 0.202290 -0.307730 127 0 127
-0.351040 -0.847187 0.293383 153 76 0
-0.171694 0.155223 0.378583 0 255 0
-0.309399 0.173695 -0.225302 127 0 127
0.167590 0.060472 0.378583 0 255 0
-0.408209 0.199852 0.166738 127 0 127
-0.204505 0.023503 0.378583 0 255 0
-0.231159 0.173695 -0.159502 127 0 127
0.373390 0.052688 -0.106410 76 153 0
-0.316401 0.153274 0.378583 0 255 0
0.344795 0.103462 -0.000260 76 153 0
-0.384379 0.139577 0.140064 0 0 255
-0.384379 0.037578 0.049511 0 0 255
0.310010 -0.131926 0.341104 76 0 153
0.176694 0.086483 0.340456 0 127 127
-0.226612 0.173695 0.260390 127 0 127
-0.370082 0.168735 0.091775 0 127 127
-0.116602 0.135975 0.378583 0 255 0
-0.098286 0.202290 0.308622 127 0 127
-0.384379 0.036216 0.171124 0 0 255
0.382922 -0.179986 -0.300224 153 0 76
-0.333519 0.202290 -0.321464 127 0 127
-0.126656 0.063779 -0.364889 127 127 0
-0.047062 0.202290 -0.027957 127 0 127
-0.334915 0.114342 -0.393484 127 127 0
0.382922 -0.011461 -0.294793 153 0 76
0.086427 -0.059763 -0.364889 127 127 0
-0.341487 0.142234 0.210054 0 127 127
0.302154 0.021188 0.186902 0 0 255
0.344795 0.061279 0.294200 76 153 0
-0.333942 0.057714 0.349988 153 76 0
-0.381990 0.116010 -0.188651 0 0 255
-0.370082 0.101693 0.209036 0 127 127
0.045755 0.099468 -0.364889 127 127 0
-0.317056 -0.114099 -0.364889 127 127 0
-0.299832 0.202290 0.292684 127 0 127
0.371098 0.136783 0.378583 0 255 0
-0.359961 -0.696352 -0.282853 76 0 153
0.103602 0.070314 0.168886 255 0 0
0.117672 0.040251 -0.102316 127 0 127
0.220667 0.186875 0.407178 0 255 0
-0.209112 0.030720 -0.045442 127 0 127
0.277516 0.040251 0.133451 127 0 127
-0.329190 0.118481 0.311861 0 127 127
-0.403970 0.202290 -0.061133 127 0 127
0.147987 -0.010658 0.378583 0 255 0
0.058391 -0.009377 0.407178 0 255 0
-0.329490 0.173695 -0.173367 127 0 127
0.357137 0.085395 -0.364889 127 127 0
0.145329 0.156727 0.378583 0 255 0
0.067606 0.075141 0.311861 0 127 127
-0.172438 -0.061357 0.407178 0 255 0
-0.353707 -0.055066 0.332686 153 76 0
0.243211 -0.032159 0.407178 0 255 0
0.177711 -0.085398 0.407178 0 255 0
0.344795 0.065148 0.037590 76 153 0
0.411517 0.116765 0.380026 0 255 0
-0.217505 0.202290 -0.074644 127 0 127
-0.279920 0.161525 0.407178 0 255 0
0.137612 0.021188 -0.175286 255 0 0
-0.321805 0.196744 0.368850 127 0 127
0.219546 0.173695 -0.107218 127 0 127
0.030164 0.173695 -0.043307 127 0 127
0.368161 -0.895845 -0.296596 153 0 76
0.344795 -0.013128 -0.076044 76 153 0
-0.133313 0.013432 -0.298167 76 153 0
-0.335200 -0.529194 0.284869 153 76 0
-0.077425 -0.077106 0.407178 0 255 0
-0.305959 0.173695 -0.362850 127 0 127
-0.332798 -0.787416 0.332093 153 76 0
0.380556 0.173695 0.118762 127 0 127
-0.353591 0.129531 0.349988 153 76 0
-0.131763 0.202290 -0.111514 127 0 127
-0.275439 0.030720 0.137699 127 0 127
0.372043 0.202290 0.334058 127 0 127
-0.274610 0.022318 0.340456 0 127 127
0.226349 0.055130 0.378583 0 255 0
0.134497 -0.117022 -0.392846 127 127 0
0.344795 0.108356 0.250554 76 153 0
0.348765 -0.118980 0.276513 76 0 153
-0.019143 0.154632 0.221684 0 255 0
0.353173 -0.232534 -0.336294 153 0 76
0.147823 -0.005272 -0.298167 76 153 0
0.367589 -0.045223 -0.364889 127 127 0
-0.341487 0.017278 -0.237697 0 127 127
0.091060 0.126037 0.179762 255 0 0
-0.320330 0.202290 0.215972 127 0 127
0.096721 0.202290 -0.271514 127 0 127
-0.111142 -0.034973 0.378583 0 255 0
0.102225 0.202290 -0.137254 127 0 127
0.063008 0.173695 -0.275759 127 0 127
-0.003135 -0.056280 -0.364889 127 127 0
0.273172 0.173695 0.296557 127 0 127
-0.011842 0.087478 0.378583 0 255 0
-0.408209 0.078710 0.378774 0 255 0
-0.337821 0.078590 -0.155192 0 255 0
-0.138472 0.173695 0.035088 127 0 127
-0.097134 0.100015 -0.326762 76 153 0
0.053973 0.093199 0.378583 0 255 0
-0.157257 0.030720 0.013490 127 0 127
-0.119079 -0.103001 -0.393484 127 127 0
0.311585 0.173695 0.208385 127 0 127
0.079138 0.021188 0.182809 255 0 0
0.022212 -0.016939 -0.304160 76 153 0
-0.104026 0.064161 0.311861 0 127 127
-0.007878 0.137475 -0.174903 0 255 0
-0.162575 -0.024604 -0.393484 127 127 0
-0.058614 0.104450 -0.364889 127 127 0
0.238906 0.132089 0.378583 0 255 0
-0.183928 0.173695 -0.102461 127 0 127
-0.380785 0.202290 0.220096 127 0 127
-0.291217 0.086187 0.187949 255 0 0
-0.059829 0.202290 -0.172931 127 0 127
0.277461 0.173695 -0.140336 127 0 127
0.316012 0.102003 -0.298167 76 153 0
0.058844 0.168235 0.076290 255 0 0
-0.232724 0.152833 0.407178 0 255 0
0.290732 -0.075856 0.378583 0 255 0
0.277861 -0.009292 -0.364889 127 127 0
-0.044753 0.012707 0.226076 0 0 255
0.326444 0.173695 0.297693 76 0 153
-0.002034 0.117306 -0.364889 127 127 0
0.345464 -0.807970 -0.336294 153 0 76
-0.341487 0.139967 -0.255453 76 0 153
-0.384379 0.130004 -0.077164 0 0 255
-0.077707 0.072962 0.168886 255 0 0
-0.379614 -0.027013 -0.282408 76 0 153
0.344795 0.124013 0.135947 76 153 0
-0.268082 0.057008 -0.393484 127 127 0
0.161091 0.023148 0.187949 0 0 255
-0.252894 0.135827 -0.298167 76 153 0
-0.360219 -0.188814 -0.268528 76 0 153
-0.318000 -0.561753 0.298323 153 76 0
-0.370082 -0.009970 0.057409 0 127 127
0.344795 0.029086 0.065255 76 153 0
-0.098746 0.173695 -0.056310 127 0 127
0.411517 0.197242 -0.178911 127 0 127
-0.387376 0.173695 -0.153230 127 0 127
0.153449 0.202290 0.031281 127 0 127
-0.303360 0.154858 0.287303 153 76 0
0.274973 0.030720 -0.053790 127 0 127
-0.195818 0.014715 -0.326762 76 153 0
0.342978 -0.073492 0.349988 76 0 153
0.348284 -0.268960 0.349988 76 0 153
-0.203074 0.173695 0.098053 127 0 127
0.325271 0.065021 -0.312464 153 0 76
0.342538 -0.053785 -0.260040 153 0 76
0.352854 -0.160534 0.349988 76 0 153
0.306668 -0.041330 -0.292578 153 0 76
-0.317134 -0.657288 0.317046 153 76 0
0.324970 -0.018041 0.378583 0 255 0
0.373390 0.028028 0.124433 76 153 0
0.373390 0.155491 0.085043 76 153 0
0.373390 0.089851 -0.175725 76 153 0
-0.370787 -0.114078 0.290041 153 76 0
0.201816 -0.081632 -0.393484 127 127 0
0.344795 0.087398 0.158903 76 153 0
0.373556 0.007801 -0.393484 127 127 0
0.089715 0.044603 -0.393484 127 127 0
-0.111401 0.012476 0.340456 0 127 127
-0.302857 0.021188 0.186365 127 127 0
-0.277728 0.173695 -0.054665 127 0 127
-0.240634 0.061266 -0.326762 76 153 0
0.208083 0.202290 0.254919 127 0 127
-0.186738 0.121182 -0.326762 76 153 0
-0.114238 0.173695 0.281418 127 0 127
-0.370082 0.000514 0.167726 0 127 127
0.309970 0.011253 0.349988 76 0 153
0.344795 0.161335 0.265843 76 153 0
0.044203 0.168387 0.311861 0 127 127
0.228026 0.151049 0.311861 0 127 127
-0.408209 0.192307 0.097205 127 0 127
0.259010 0.087766 0.067899 127 127 0
0.291036 0.053561 0.311861 76 0 153
-0.335565 -0.117022 0.378935 0 255 0
0.375492 -0.052795 0.378583 0 255 0
0.184330 0.136553 0.378583 0 255 0
-0.083557 0.173695 0.147091 127 0 127
-0.124392 0.126037 0.170631 255 0 0
-0.054556 0.135568 -0.270198 0 255 0
0.011805 0.173695 0.160538 0 255 0
0.157621 0.000501 0.226076 0 0 255
-0.304197 0.202290 0.167514 127 0 127
0.153799 0.050126 -0.364889 127 127 0
0.372559 0.202290 0.224076 127 0 127
0.228654 0.055043 -0.364889 127 127 0
-0.286333 0.028606 -0.155192 0 255 0
0.049337 0.135568 0.004995 255 0 0
-0.214470 0.173695 0.310392 0 127 127
0.408409 0.155120 -0.364889 127 127 0
0.306668 0.103628 0.285832 76 0 153
-0.248390 0.051978 0.378583 0 255 0
-0.325132 -0.905179 0.322543 153 76 0
0.000282 0.030493 -0.393484 127 127 0
-0.130421 0.173695 0.119074 127 0 127
-0.214766 -0.007407 0.197219 0 0 255
0.382922 -0.275065 0.312456 76 0 153
-0.287726 0.035604 -0.326762 76 153 0
-0.223381 -0.018070 0.407178 0 255 0
0.266948 0.004402 -0.326762 76 153 0
-0.359737 -0.264521 0.283909 153 76 0
0.411517 0.057292 -0.366134 127 127 0
-0.239348 -0.040969 0.378583 0 255 0
0.309420 -0.118350 -0.335622 153 0 76
0.343819 0.173695 -0.321962 153 0 76
-0.028593 0.064918 -0.174255 0 255 0
0.396212 0.202290 -0.045009 127 0 127
-0.359738 -0.925986 -0.303832 76 0 153
-0.308382 0.089742 0.378583 0 255 0
-0.011966 0.202290 0.067250 127 0 127
0.116618 0.202290 -0.035808 127 0 127
0.353311 0.202290 -0.012601 127 0 127
0.382922 0.168641 -0.303552 127 0 127
0.373390 0.087513 0.269363 76 153 0
-0.247536 -0.078517 -0.364889 127 127 0
-0.365250 0.035250 0.407178 0 255 0
-0.375382 0.173695 -0.354177 127 0 127
-0.353820 -0.124726 -0.332348 76 0 153
0.278454 0.126440 0.340456 0 127 127
0.113298 -0.005853 0.407178 0 255 0
-0.369216 -0.312856 -0.281337 76 0 153
-0.142648 0.056966 0.378583 0 255 0
0.345797 -0.235880 0.281596 76 0 153
-0.247044 -0.022637 -0.393484 127 127 0
-0.179307 0.145313 0.311861 0 127 127
0.311434 -0.164691 0.306760 76 0 153
-0.315101 0.017056 0.378583 0 255 0
-0.343717 -0.055066 -0.299793 76 0 153
0.030247 0.173695 -0.225379 255 0 0
0.134790 0.141287 0.311861 0 127 127
0.367696 -0.569675 -0.282414 153 0 76
-0.361116 0.173695 0.323285 127 0 127
0.297413 0.145344 -0.393484 127 127 0
0.346073 -0.399808 0.288723 76 0 153
0.373390 0.143383 -0.174695 76 153 0
-0.287237 -0.030410 -0.393484 127 127 0
0.245843 0.173695 -0.282938 127 0 127
-0.034619 0.159632 0.311861 0 255 0
-0.355784 0.052888 -0.049494 0 0 255
0.346521 -0.365259 0.349988 76 0 153
-0.019278 0.154632 -0.139684 0 255 0
0.080829 0.202290 0.242440 127 0 127
0.239483 0.025832 -0.298167 76 153 0
-0.342777 -0.841183 0.332729 153 76 0
-0.197512 0.173695 -0.284863 127 0 127
-0.286932 0.081480 -0.326762 76 153 0
0.319696 0.173695 -0.142758 127 0 127
-0.356773 0.173695 0.144676 127 0 127
-0.171529 0.140822 -0.298167 76 153 0
0.411517 0.199384 -0.098275 127 0 127
0.261289 0.202290 0.081738 127 0 127
-0.232041 0.171912 0.374470 153 0 76
-0.324888 0.040251 0.009720 127 0 127
0.021748 0.027409 0.407178 0 255 0
0.025724 0.148401 0.407178 0 255 0
0.158142 0.097396 0.168886 255 0 0
0.203150 -0.026795 -0.364889 127 127 0
-0.055215 0.197438 -0.351900 127 0 127
0.344795 0.022953 0.019367 76 153 0
-0.214912 0.072268 0.378583 0 255 0
-0.079186 0.173695 -0.236090 127 0 127
0.402847 0.005148 -0.364889 127 127 0
-0.043993 0.123353 0.168886 255 0 0
-0.173391 0.030720 0.103008 127 0 127
0.310094 -0.017173 -0.393484 127 127 0
-0.273147 0.202290 -0.128741 127 0 127
0.002321 0.118230 0.340456 0 127 127
0.232263 0.000835 0.226076 0 0 255
0.373390 0.123596 0.055979 76 153 0
-0.020258 0.173695 0.028962 127 0 127
0.098917 0.173695 0.290243 127 0 127
-0.178199 0.173695 0.005385 127 0 127
-0.083647 0.173695 0.207238 127 0 127
0.089868 -0.115359 -0.364889 127 127 0
0.345692 -0.913911 0.349988 76 0 153
0.114947 0.031962 0.340456 0 127 127
-0.091159 -0.052093 -0.393484 127 127 0
0.325073 0.101513 0.407178 0 255 0
-0.184852 0.030720 -0.096282 127 0 127
-0.397809 0.173695 -0.205627 127 0 127
0.257608 0.028724 0.187949 127 127 0
-0.095642 0.012329 0.378583 0 255 0
-0.065765 0.027374 -0.326762 76 153 0
-0.214497 -0.078842 0.407178 0 255 0
-0.201917 0.030720 0.146036 127 0 127
-0.374130 -0.188211 0.299391 153 76 0
0.167112 0.015720 -0.212382 255 0 0
-0.329750 -0.249624 -0.266652 76 0 153
0.344795 0.022778 -0.032495 76 153 0
-0.222129 0.030720 0.007896 127 0 127
-0.111334 0.202290 0.000470 127 0 127
-0.327562 -0.467759 -0.323686 76 0 153
0.065096 -0.117022 0.405862 0 255 0
0.231804 0.202290 0.341589 127 0 127
-0.205860 0.127111 -0.393484 127 127 0
-0.381106 -0.014446 0.378583 0 255 0
0.354113 -0.375539 -0.336294 153 0 76
-0.314281 -0.016939 0.317282 153 76 0
0.020624 0.021054 0.340456 0 127 127
-0.331461 0.077235 0.273735 153 76 0
0.399787 0.173695 0.026737 127 0 127
0.311595 0.063414 0.349988 76 0 153
0.238383 0.030720 -0.129131 127 0 127
0.382922 -0.417302 0.324051 76 0 153
-0.370082 -0.014539 -0.008453 0 127 127
-0.305220 0.039014 -0.207616 0 255 0
-0.091436 0.020971 0.226076 127 127 0
-0.183642 -0.098611 -0.393484 127 127 0
-0.256641 0.069130 0.187949 255 0 0
-0.287846 0.065988 0.407178 0 255 0
-0.342413 -0.016939 -0.053723 0 127 127
-0.368411 -0.074794 -0.324474 76 0 153
-0.044295 0.014092 -0.364889 127 127 0
-0.048633 0.173695 0.111606 127 0 127
-0.068934 0.021188 0.177625 255 0 0
-0.355784 0.065418 0.125821 0 0 255
0.313437 -0.210754 0.330662 76 0 153
-0.100391 0.173695 0.353688 127 0 127
0.355950 -0.486629 0.349988 76 0 153
0.361608 -0.100757 -0.364889 127 127 0
-0.219353 0.202290 -0.037385 127 0 127
-0.278688 0.202290 -0.176518 127 0 127
0.028804 0.057521 -0.393484 127 127 0
0.382922 0.120320 -0.314291 153 0 76
0.224815 0.095743 -0.364889 127 127 0
0.350821 -0.016939 -0.254946 76 153 0
0.135023 0.173695 0.250123 127 0 127
-0.154870 0.173695 -0.062760 127 0 127
0.094572 0.173695 -0.197636 127 0 127
0.277825 0.202290 0.331145 127 0 127
-0.315430 -0.061742 -0.364889 127 127 0
-0.369101 0.202290 -0.106885 127 0 127
0.239845 0.173695 -0.239296 127 0 127
0.346664 0.118700 0.349988 76 0 153
-0.189447 0.202290 0.364181 127 0 127
-0.334769 -0.057249 0.378583 0 255 0
-0.058004 0.126500 -0.326762 76 153 0
-0.253880 -0.016939 -0.298624 76 153 0
0.348436 -0.051031 0.273735 76 0 153
0.035093 0.135918 0.340456 0 127 127
0.382922 -0.795029 0.335518 76 0 153
0.344795 0.138864 -0.020291 76 153 0
-0.099216 0.130300 -0.298167 76 153 0
-0.355908 0.091473 0.168886 0 0 255
-0.372796 -0.309402 0.320729 153 76 0
0.328225 0.173695 0.082720 127 0 127
-0.339469 -0.155040 0.347549 153 76 0
0.344795 0.102889 -0.096063 76 153 0
0.088682 0.014329 0.226076 0 0 255
-0.053285 0.202290 -0.241663 127 0 127
-0.096637 0.173695 -0.132038 127 0 127
-0.343604 -0.529756 -0.325696 76 0 153
0.320810 0.173695 -0.017953 127 0 127
-0.050938 0.135568 -0.191366 0 255 0
0.336036 -0.730536 0.308636 76 0 153
0.248032 0.202290 -0.341631 127 0 127
0.262208 0.070660 0.407178 0 255 0
-0.004545 0.104193 -0.298167 76 153 0
0.302252 0.173695 -0.337507 153 76 0
0.316334 -0.277371 -0.304318 153 0 76
-0.232980 0.173695 0.120123 127 0 127
-0.370082 0.005291 0.093419 0 127 127
-0.310441 -0.352850 0.316473 153 76 0
0.382841 -0.931981 -0.332657 153 0 76
0.003966 0.142837 -0.393484 127 127 0
-0.384379 0.136877 -0.152805 0 0 255
0.253446 0.018219 -0.212382 255 0 0
0.214775 0.202290 0.155359 127 0 127
-0.281451 0.202290 0.007404 127 0 127
0.356490 0.000924 0.349988 76 0 153
0.041998 0.202290 -0.073127 127 0 127
0.254522 0.202290 0.207292 127 0 127
-0.363754 -0.769749 0.309407 153 76 0
-0.252567 0.049783 -0.201016 0 255 0
0.193762 0.047404 0.221310 127 127 0
-0.268619 -0.011622 0.407178 0 255 0
-0.075576 0.103328 0.378583 0 255 0
0.229252 0.173695 -0.193946 127 0 127
-0.262452 0.202290 0.361646 127 0 127
-0.124884 0.173695 0.233707 127 0 127
-0.108950 -0.117022 0.380377 0 255 0
-0.226135 0.147003 -0.326762 76 153 0
-0.379614 0.017330 0.344943 153 76 0
-0.313328 -0.487840 0.316114 153 76 0
-0.340291 -0.208420 -0.332802 76 0 153
0.281500 0.041248 -0.298167 76 153 0
0.346146 -0.176858 -0.336294 153 0 76
-0.341487 -0.009816 -0.188997 0 127 127
-0.108118 0.027693 0.192715 0 0 255
-0.040751 0.101423 0.311861 0 127 127
0.344795 0.018089 0.156391 0 0 255
-0.152438 0.021188 0.208887 127 127 0
-0.375330 0.171478 0.273735 127 0 127
0.207832 -0.000516 0.407178 0 255 0
0.199081 0.173695 -0.217458 127 0 127
-0.397105 0.202290 0.042353 127 0 127
0.105183 0.202290 -0.084074 127 0 127
-0.319440 -0.158031 0.283929 153 76 0
0.055537 0.030720 -0.122252 127 0 127
0.259127 0.202290 -0.003616 127 0 127
-0.354918 0.178801 0.407178 0 255 0
-0.145885 -0.009538 0.407178 0 255 0
0.365909 -0.643390 0.349988 76 0 153
0.018139 0.202290 0.295254 127 0 127
-0.313107 0.112033 0.407178 0 255 0
-0.384379 0.112176 0.062311 0 0 255
0.018907 0.054593 -0.326762 76 153 0
-0.119521 0.118117 -0.364889 127 127 0
-0.192770 0.077461 0.407178 0 255 0
-0.135939 0.112196 0.311861 0 127 127
0.139182 0.120981 -0.364889 127 127 0
-0.180299 -0.116235 0.378583 0 255 0
-0.370256 0.030110 -0.393484 127 127 0
-0.385100 0.144187 0.407178 0 255 0
0.001542 -0.007407 -0.174331 255 0 0
-0.130244 0.030720 0.136627 127 0 127
-0.252557 0.104348 -0.364889 127 127 0
0.144364 0.173695 -0.039863 127 0 127
0.347429 0.017786 0.302330 76 153 0
0.363430 0.125539 -0.364889 127 127 0
0.169693 0.034070 -0.393484 127 127 0
-0.111317 0.173695 0.071743 127 0 127
-0.386762 0.076672 0.004042 0 0 255
0.155621 0.202290 0.091547 127 0 127
-0.252856 0.126819 0.340456 0 127 127
-0.341487 0.143701 -0.203606 0 127 127
-0.155179 0.173695 0.148857 127 0 127
0.113542 0.202290 0.202869 127 0 127
0.359521 0.173695 -0.245618 76 153 0
-0.081323 0.040251 -0.006136 127 0 127
0.345608 -0.040496 -0.336294 153 0 76
0.375825 0.063515 0.378583 0 255 0
0.367063 -0.125270 -0.263093 153 0 76
0.058072 0.173695 0.253941 255 0 0
-0.329930 0.133184 -0.312464 76 153 0
-0.018551 0.135568 0.045721 0 255 0
0.144454 0.095947 0.378583 0 255 0
0.278073 0.036816 -0.000909 127 0 127
0.210269 0.173695 0.335704 127 0 127
-0.037449 0.040251 -0.099796 127 0 127
0.188309 0.158467 0.407178 0 255 0
-0.253646 0.202290 0.040334 127 0 127
-0.407117 0.173695 0.238814 127 0 127
0.278123 0.025585 0.340456 0 127 127
0.082561 0.202290 0.126866 127 0 127
0.356793 -0.328283 0.349988 76 0 153
0.195771 0.030720 -0.088939 127 0 127
-0.318574 -0.734755 0.315187 153 76 0
-0.370082 0.167617 -0.015539 0 127 127
0.379306 -0.728911 -0.336294 153 0 76
-0.118012 0.173695 -0.333604 127 0 127
0.278073 0.078772 -0.157966 0 255 0
-0.002253 0.040251 0.144983 127 0 127
-0.062625 -0.015809 0.378583 0 255 0
0.259010 0.125864 -0.059077 127 127 0
0.131148 0.202290 -0.312009 127 0 127
0.084797 0.066715 -0.364889 127 127 0
0.035483 0.173695 -0.330225 127 0 127
-0.323938 0.202290 -0.241923 127 0 127
-0.210706 0.021422 0.311861 0 127 127
0.055473 0.011567 0.340456 0 127 127
0.304177 0.202290 0.077505 127 0 127
0.258002 -0.048354 -0.364889 127 127 0
0.411517 0.182801 -0.217411 127 0 127
0.236205 0.060892 0.187949 127 127 0
0.024852 -0.007407 0.206382 0 0 255
-0.087435 -0.007407 -0.196083 255 0 0
-0.055536 0.137436 -0.081715 0 255 0
0.311831 -0.007407 -0.173404 255 0 0
0.100365 0.021188 -0.173260 255 0 0
-0.379614 0.109602 -0.306629 76 0 153
-0.370284 -0.090553 0.335170 153 76 0
0.247277 0.015848 -0.393484 127 127 0
-0.186283 0.173695 0.223371 127 0 127
0.241083 -0.003478 0.159354 0 0 255
-0.370082 0.055564 0.231802 0 127 127
0.006228 0.082581 0.311861 0 127 127
-0.136637 0.063561 -0.298167 76 153 0
-0.090653 0.068820 -0.393484 127 127 0
0.338261 0.079811 -0.260040 153 0 76
0.211242 0.003096 0.340456 0 127 127
0.382922 -0.201592 0.315416 76 0 153
0.249172 0.202290 0.309389 127 0 127
-0.063219 0.163278 -0.364889 127 127 0
0.011694 0.001138 0.311861 0 127 127
-0.055536 0.137895 0.251917 0 255 0
0.039781 0.170244 0.212576 255 0 0
0.023564 0.135568 0.060140 255 0 0
0.244497 0.064198 0.311861 0 127 127
-0.333000 -0.351267 -0.328656 76 0 153
-0.370082 0.156612 0.178124 0 127 127
-0.174791 0.202290 -0.311189 127 0 127
0.125870 0.024163 -0.364889 127 127 0
0.396806 0.173695 -0.155832 127 0 127
-0.154411 0.173695 -0.319217 127 0 127
0.384058 0.202290 0.281630 127 0 127
0.229349 0.167730 -0.358940 153 76 0
-0.039439 0.038235 0.340456 0 127 127
-0.303260 0.202290 -0.099202 127 0 127
-0.170942 0.091342 -0.393484 127 127 0
0.066561 0.202290 0.001763 127 0 127
0.223579 0.202290 0.031952 127 0 127
0.391344 -0.012227 0.407178 0 255 0
0.202902 0.202290 -0.047213 127 0 127
0.365030 0.202290 -0.325846 127 0 127
0.059507 0.034850 0.221310 127 127 0
0.046807 0.197414 0.365972 127 0 127
-0.003886 -0.038295 0.407178 0 255 0
0.190896 0.016489 -0.298167 76 153 0
0.366283 0.202290 -0.127562 127 0 127
0.147538 -0.117022 0.386457 0 255 0
0.201458 0.115176 -0.393484 127 127 0
0.217102 -0.016939 -0.325742 76 153 0
-0.113140 0.149190 0.311861 0 127 127
0.352189 0.141240 0.302330 76 153 0
0.349899 0.056788 0.349988 76 0 153
-0.339191 0.136219 -0.364889 127 127 0
0.274779 0.026049 -0.179021 255 0 0
0.357040 -0.361586 0.287062 76 0 153
0.011186 0.138651 -0.282242 255 0 0
-0.324842 -0.195405 0.342608 153 76 0
0.167133 0.030720 -0.130722 127 0 127
0.048877 0.018664 -0.298167 76 153 0
-0.190515 0.079580 0.340456 0 127 127
0.350323 -0.419816 0.349988 76 0 153
0.175792 0.030720 -0.053153 127 0 127
0.107213 0.040251 0.033711 127 0 127
0.337131 -0.755722 0.345254 76 0 153
0.405020 -0.078131 0.378583 0 255 0
-0.204494 0.202290 0.125000 127 0 127
-0.184604 0.092643 -0.174255 0 255 0
0.376293 0.202290 -0.214315 127 0 127
-0.370082 0.088620 -0.222133 0 127 127
0.149824 0.113464 -0.326762 76 153 0
0.278343 0.202290 -0.115926 127 0 127
0.010634 0.049783 -0.190550 0 255 0
-0.377901 0.022913 0.203653 0 127 127
-0.372000 -0.117022 -0.368886 127 127 0
-0.016895 0.040251 0.022967 127 0 127
0.045294 0.173695 -0.117969 127 0 127
0.373390 0.002453 0.175727 76 153 0
0.026657 0.007251 -0.364889 127 127 0
-0.376145 0.202290 0.345035 127 0 127
0.090795 0.202290 -0.318201 127 0 127
0.335263 0.080925 0.322759 0 127 127
0.236955 0.202290 -0.095218 127 0 127
0.292895 0.202290 -0.041406 127 0 127
0.180463 0.048331 -0.207616 0 255 0
0.014119 0.154632 0.241550 255 0 0
-0.313907 -0.129479 0.335378 153 76 0
-0.369434 -0.458312 -0.289570 76 0 153
-0.349850 -0.528697 -0.271765 76 0 153
0.234220 -0.007407 -0.184575 255 0 0
-0.350407 -0.226725 0.345077 153 76 0
0.057897 0.163565 -0.393484 127 127 0
-0.319162 0.085929 -0.364889 127 127 0
0.095202 -0.090314 0.407178 0 255 0
0.278073 0.032211 -0.123718 127 0 127
-0.161587 0.173695 0.185429 127 0 127
-0.341487 -0.015620 -0.252358 0 127 127
0.183724 0.202290 -0.094871 127 0 127
-0.214125 -0.007407 -0.182691 255 0 0
-0.170241 -0.007407 0.194203 0 0 255
-0.341487 0.136869 -0.112026 0 127 127
-0.018686 0.057699 0.187949 255 0 0
0.204434 0.093101 0.407178 0 255 0
0.139095 0.186046 -0.364577 127 0 127
-0.355784 0.067272 0.037308 0 0 255
-0.115052 0.202290 -0.204650 127 0 127
0.381215 0.112065 -0.260040 153 0 76
0.243456 0.135185 0.340456 0 127 127
-0.253719 0.173695 0.170284 127 0 127
-0.316830 -0.358922 -0.278964 76 0 153
-0.067907 0.173695 -0.027119 127 0 127
0.040297 0.202290 0.194988 127 0 127
0.064924 0.173695 0.038193 127 0 127
-0.089842 0.175369 -0.393484 127 127 0
0.371546 -0.852336 0.308398 76 0 153
0.344795 0.118293 0.033444 76 153 0
0.382922 -0.356579 -0.302411 153 0 76
0.140304 0.080808 0.340456 0 127 127
0.361575 -0.109361 0.349988 76 0 153
0.120325 0.029374 0.221310 127 127 0
-0.370082 0.003299 -0.122688 0 127 127
-0.264768 -0.008614 -0.364889 127 127 0
-0.346081 -0.613054 -0.272775 76 0 153
-0.054758 0.045699 0.407178 0 255 0
-0.226535 0.164357 -0.393484 127 127 0
0.233154 0.080585 -0.155192 127 127 0
0.351482 0.065448 -0.336294 153 0 76
0.055058 -0.079379 -0.364889 127 127 0
0.321155 0.202290 -0.081534 127 0 127
0.107316 0.086660 -0.326762 76 153 0
0.182482 0.075286 -0.326762 76 153 0
-0.363286 0.050981 -0.155239 0 255 0
0.310983 0.022469 0.407178 0 255 0
-0.066166 0.172081 -0.298167 76 153 0
0.119770 0.077664 -0.155192 0 255 0
0.253090 0.117034 0.407178 0 255 0
0.356807 -0.309607 -0.336294 153 0 76
-0.211203 0.092158 -0.326762 76 153 0
0.108377 0.202290 0.006233 127 0 127
-0.023662 0.160187 0.378583 0 255 0
0.138019 0.067097 0.187949 255 0 0
0.024476 0.095822 0.187949 255 0 0
0.373390 0.090188 0.185841 76 153 0
0.006416 0.033049 -0.298167 76 153 0
-0.312633 0.173695 -0.069231 127 0 127
-0.178512 0.054264 0.311861 0 127 127
-0.229839 0.202290 0.197291 127 0 127
-0.341487 0.071705 -0.204911 0 127 127
-0.236568 -0.006364 0.159354 0 0 255
0.003897 0.202290 0.346648 127 0 127
0.165102 0.069530 0.311861 0 127 127
-0.335343 -0.289153 0.344090 153 76 0
-0.304213 -0.088494 -0.297212 76 0 153
-0.100224 0.029561 -0.174255 0 255 0
-0.277892 0.202290 0.244937 127 0 127
-0.362529 -0.394018 0.334154 153 76 0
0.013285 0.009229 -0.145660 255 0 0
0.344795 -0.016624 0.118088 76 153 0
-0.043891 0.135568 -0.156000 0 255 0
-0.376457 -0.192363 -0.299473 76 0 153
-0.080661 -0.080674 -0.364889 127 127 0
-0.069432 0.048596 -0.207616 0 255 0
0.324868 -0.473667 -0.308254 153 0 76
0.039781 0.171910 -0.184500 127 0 127
0.382922 -0.688955 -0.297863 153 0 76
-0.340294 -0.003474 0.407178 0 255 0
-0.353114 -0.130871 -0.263836 76 0 153
-0.024739 0.173695 0.344800 0 127 127
0.317101 0.173695 0.248297 127 0 127
-0.353958 0.060458 0.378583 0 255 0
0.382922 -0.111075 -0.332890 153 0 76
0.159733 0.041897 0.407178 0 255 0
0.330797 0.173695 -0.101031 127 0 127
0.119039 0.097244 0.311861 0 127 127
-0.147786 0.007082 -0.393484 127 127 0
-0.196528 -0.050220 -0.393484 127 127 0
-0.159436 0.121553 0.378583 0 255 0
0.373390 0.069358 0.140686 76 153 0
0.002644 0.065521 0.407178 0 255 0
-0.347176 -0.232383 0.278338 153 76 0
-0.086811 0.202290 -0.105964 127 0 127
0.353576 0.202290 0.167136 127 0 127
-0.169370 0.005551 0.378583 0 255 0
-0.106881 0.155278 0.407178 0 255 0
-0.170303 0.173695 -0.189530 127 0 127
0.180829 0.202290 0.183928 127 0 127
0.342359 -0.874500 0.309362 76 0 153
-0.318096 0.073780 0.168886 255 0 0
0.373390 0.146673 -0.078800 76 153 0
-0.108950 0.202290 -0.073487 127 0 127
-0.066271 0.202290 0.249583 127 0 127
0.327176 -0.008224 -0.312464 153 0 76
-0.315630 0.187251 -0.393484 127 127 0
-0.328633 -0.551081 0.335881 153 76 0
0.129366 0.100458 -0.393484 127 127 0
-0.251839 -0.059075 -0.393484 127 127 0
0.196667 -0.007407 -0.173848 255 0 0
0.398271 0.202290 0.046572 127 0 127
0.277162 0.173695 -0.175155 127 0 127
0.187094 0.179630 -0.364889 127 0 127
0.319348 -0.346701 0.316103 76 0 153
0.316628 0.173695 -0.220287 127 0 127
-0.169856 0.021188 0.169070 255 0 0
0.395700 -0.093788 -0.364889 127 127 0
0.342543 -0.831844 0.349988 76 0 153
-0.276249 0.040251 -0.047576 127 0 127
-0.379614 0.049925 0.315010 153 76 0
-0.269826 0.026110 -0.298167 76 153 0
0.088262 0.099663 -0.298167 76 153 0
-0.068074 0.030720 0.138030 127 0 127
0.086209 0.146852 -0.298167 76 153 0
0.123787 0.187494 0.407178 0 255 0
0.071530 0.202290 -0.233555 127 0 127
0.320900 -0.128062 -0.263214 153 0 76
-0.288796 -0.082007 0.407178 0 255 0
-0.282189 0.166159 -0.298167 76 153 0
-0.342364 0.092238 0.349988 153 76 0
-0.370082 0.037501 -0.251124 0 127 127
-0.040579 -0.007407 0.196365 0 0 255
-0.370082 -0.016883 0.241318 0 127 127
-0.313052 0.173695 0.119263 127 0 127
-0.069538 0.040251 -0.074424 127 0 127
0.259010 0.103420 0.036982 127 127 0
-0.206103 0.202290 -0.147462 127 0 127
-0.286198 0.006567 0.311861 0 127 127
0.277321 0.122990 -0.155192 0 255 0
0.010390 0.173695 0.002789 127 0 127
-0.184393 0.055910 0.378583 0 255 0
-0.062860 0.110783 0.340456 0 127 127
0.362391 0.023089 -0.336294 153 0 76
0.102248 0.081196 0.407178 0 255 0
0.155861 0.076391 -0.393484 127 127 0
0.331480 0.202290 -0.158257 127 0 127
-0.011059 0.202290 0.206587 127 0 127
-0.196615 -0.022968 0.378583 0 255 0
-0.081186 0.074691 0.407178 0 255 0
-0.076059 0.173927 0.378583 127 0 127
-0.341487 0.160174 -0.140128 0 127 127
0.344795 -0.012439 0.189016 76 153 0
-0.341487 0.035590 0.231259 0 127 127
-0.129214 0.202290 -0.270466 127 0 127
0.298111 -0.043124 -0.364889 127 127 0
-0.075501 0.173695 -0.161651 127 0 127
0.345518 -0.218898 0.349988 76 0 153
-0.177143 -0.011978 -0.298167 76 153 0
-0.259186 0.202290 -0.326884 127 0 127
0.103813 0.044270 -0.326762 76 153 0
-0.239402 0.037487 -0.393484 127 127 0
-0.142694 -0.028250 -0.364889 127 127 0
-0.341955 -0.710571 0.335676 153 76 0
-0.230878 0.006312 -0.326762 76 153 0
-0.322749 -0.324676 -0.272223 76 0 153
-0.246896 0.030720 -0.062877 127 0 127
0.382922 0.078791 -0.287716 153 0 76
0.079872 0.120605 -0.364889 127 127 0
-0.282687 0.145412 0.340456 0 127 127
0.088895 0.049783 -0.189693 0 255 0
0.000862 0.027043 0.221310 0 0 255
-0.330074 -0.092418 0.347177 153 76 0
0.267701 0.093704 -0.364889 127 127 0
-0.217733 0.021188 0.225949 0 0 255
0.274063 0.173695 -0.245442 127 0 127
0.380630 -0.931632 -0.298152 153 0 76
0.188330 0.202290 -0.002390 127 0 127
0.401088 0.187993 0.406704 0 255 0
-0.341487 0.018843 0.030819 0 127 127
-0.351942 0.202290 0.201469 127 0 127
0.364469 -0.505653 -0.279631 153 0 76
0.212615 0.056008 -0.326762 76 153 0
-0.240935 0.202290 -0.289100 127 0 127
-0.106508 0.202290 -0.242636 127 0 127
-0.294214 0.032681 -0.393484 127 127 0
-0.042961 -0.078016 -0.364889 127 127 0
0.356589 -0.463798 0.291506 76 0 153
-0.332299 -0.215232 -0.264794 76 0 153
0.155541 -0.007407 -0.184138 255 0 0
-0.293568 0.083811 -0.155192 0 255 0
0.103273 0.030720 0.119461 127 0 127
-0.009874 0.173695 0.093781 0 255 0
-0.356563 0.043057 -0.364889 127 127 0
-0.089612 0.005086 -0.393484 127 127 0
0.382922 0.075443 0.342479 76 0 153
-0.044967 0.040251 -0.027391 127 0 127
-0.102467 0.065623 -0.298167 76 153 0
-0.340624 -0.888506 0.291966 153 76 0
0.063581 0.067940 -0.174255 0 255 0
-0.331285 0.031232 0.407178 0 255 0
-0.220630 0.202290 0.063884 127 0 127
-0.269943 0.202290 0.155886 127 0 127
0.353340 0.173695 0.333031 127 0 127
0.052214 0.202290 -0.166836 127 0 127
-0.408209 0.068607 -0.368261 127 127 0
-0.109375 0.010952 -0.326762 76 153 0
-0.198147 0.202290 -0.232308 127 0 127
-0.214895 0.173695 -0.190571 127 0 127
0.048991 0.127487 -0.326762 76 153 0
-0.159219 0.142750 -0.393484 127 127 0
-0.152182 0.202290 0.061499 127 0 127
0.086309 0.149493 0.378583 0 255 0
0.382889 -0.119621 0.276541 76 0 153
-0.362287 0.083479 0.407178 0 255 0
0.174356 0.014845 0.340456 0 127 127
-0.313304 0.040251 0.147267 127 0 127
-0.379368 0.002217 0.273735 153 76 0
0.335263 0.127446 -0.310218 76 153 0
0.407438 -0.079417 -0.393484 127 127 0
-0.366348 -0.642636 0.308119 153 76 0
-0.284010 0.000325 0.378583 0 255 0
-0.289980 0.173695 0.029660 127 0 127
-0.341487 0.107595 -0.187619 0 127 127
-0.145105 0.070675 0.168886 255 0 0
