ply
format ascii 1.0
element vertex 1267
property float x
property float y
property float z
property uchar red
property uchar green
property uchar blue
end_header
0.010372 -0.825528 0.077463 153 0 76
-0.147019 0.246521 0.206431 76 153 0
0.354389 -0.406310 0.067916 0 127 127
0.089666 0.315701 0.223195 153 0 76
0.102998 0.864453 -0.205273 76 0 153
-0.328023 -0.825528 -0.161913 153 0 76
0.367792 0.866704 -0.174673 76 0 153
-0.076842 -0.833390 0.223195 76 153 0
0.177132 0.906347 -0.084154 76 0 153
-0.070862 -0.516241 -0.227149 76 153 0
-0.327937 0.278316 -0.234007 76 153 0
-0.360684 0.164991 -0.115610 127 0 127
0.273701 -0.794569 0.223195 153 0 76
0.056805 -0.414528 -0.234007 76 153 0
0.137725 -0.358135 0.206431 153 0 76
-0.360684 -0.402719 -0.078817 127 0 127
-0.360684 -0.144242 0.158315 127 0 127
-0.146320 0.123374 -0.227149 76 153 0
0.163574 0.578953 0.223195 153 0 76
0.145001 -0.000674 0.223195 153 0 76
-0.139752 0.807192 0.206431 76 153 0
0.367792 -0.005901 -0.197660 0 127 127
0.367792 -0.510971 -0.179146 0 127 127
0.227167 0.151345 -0.227149 76 153 0
0.284730 -0.825528 0.177234 153 0 76
0.365685 0.158518 -0.234007 76 153 0
0.299752 0.302419 0.206431 153 0 76
-0.360684 -0.092823 -0.215580 76 153 0
-0.274466 -0.847017 -0.200710 0 0 255
-0.300117 0.802696 0.206431 76 153 0
0.032883 0.423715 -0.227149 76 153 0
0.131271 -0.528668 0.206431 153 0 76
0.335246 0.864453 0.192096 76 0 153
0.354389 -0.244842 -0.064813 0 127 127
0.195879 -0.839245 -0.066557 153 0 76
-0.293207 -0.808101 0.206431 76 153 0
0.230223 -0.581945 0.206431 153 0 76
0.190404 -0.529784 0.223195 153 0 76
-0.346155 0.906347 0.200240 76 0 153
-0.347280 -0.175880 -0.040248 127 0 127
-0.360684 0.865392 -0.158631 127 0 127
-0.347280 0.420215 0.008916 127 0 127
0.354389 0.091252 -0.155829 0 127 127
0.358278 -0.426143 0.223195 153 0 76
-0.360684 0.228704 -0.221623 76 153 0
0.086958 -0.905344 0.145640 127 127 0
-0.207616 0.080280 0.223195 76 153 0
0.164293 0.760503 0.223195 153 0 76
-0.055506 -0.684748 0.206431 76 153 0
0.367792 -0.032864 0.034491 0 127 127
0.355557 0.906181 0.213184 153 0 76
0.354389 0.745514 -0.200939 0 127 127
0.321455 0.804334 0.223195 153 0 76
0.367792 -0.736930 -0.055720 0 127 127
-0.347280 -0.283751 0.154971 127 0 127
-0.360684 -0.144819 0.107000 127 0 127
0.338424 -0.548998 -0.234007 76 153 0
0.367792 -0.789038 0.006413 0 127 127
0.367792 0.644095 -0.059979 0 127 127
-0.151101 0.906347 -0.084185 76 0 153
0.146226 0.864453 -0.033417 76 0 153
-0.148441 0.864453 -0.167130 76 0 153
0.086191 -0.839245 -0.156455 153 0 76
0.367792 -0.653123 -0.233716 0 127 127
0.059034 0.663004 -0.227149 76 153 0
0.354389 0.578509 -0.089100 0 127 127
0.354389 0.262669 -0.031339 0 127 127
-0.360684 0.758834 -0.230342 76 153 0
0.288960 -0.136600 -0.227149 76 153 0
-0.059470 0.091145 0.206431 76 153 0
0.076104 -0.126947 0.223195 153 0 76
-0.016315 0.091223 -0.234007 76 153 0
0.189551 0.871344 0.223195 153 0 76
0.367792 -0.239538 -0.158103 0 127 127
-0.347280 -0.122932 -0.199363 127 0 127
-0.283490 0.231768 -0.227149 76 153 0
0.296410 -0.663004 0.206431 153 0 76
-0.298529 0.233385 0.206431 76 153 0
0.295770 0.906347 0.179680 76 0 153
0.339817 -0.283886 -0.227149 76 153 0
0.218991 0.166476 0.206431 153 0 76
0.025991 0.849089 0.206431 153 0 76
-0.360684 0.352934 0.045972 127 0 127
0.340962 -0.091619 -0.234007 76 153 0
-0.053231 0.864453 0.029917 76 0 153
-0.095358 0.104528 0.223195 76 153 0
0.354389 0.817048 -0.018234 0 127 127
-0.356806 -0.161621 0.223195 76 153 0
0.180652 0.465503 -0.227149 76 153 0
-0.043956 -0.588506 0.206431 76 153 0
-0.327814 0.028047 -0.227149 76 153 0
-0.253077 0.627348 0.223195 76 153 0
0.224707 -0.723963 -0.227149 76 153 0
0.000195 -0.703580 0.206431 153 0 76
0.367792 0.035148 0.206826 153 0 76
0.354389 0.111802 0.064389 0 127 127
-0.360684 0.720293 -0.035194 127 0 127
-0.048291 -0.045079 0.206431 76 153 0
0.354389 -0.070119 0.184408 0 127 127
-0.182061 0.112317 -0.227149 76 153 0
-0.207822 -0.102969 -0.227149 76 153 0
-0.098233 0.906347 -0.233210 76 153 0
0.266332 -0.105087 -0.227149 76 153 0
-0.106486 0.829368 0.206431 76 153 0
0.065918 0.906347 0.083188 76 0 153
0.199370 0.135742 0.206431 153 0 76
0.367792 0.590740 0.081832 0 127 127
-0.360684 -0.839009 -0.221932 127 0 127
-0.331592 0.145036 -0.234007 76 153 0
-0.268223 -0.847017 -0.166344 0 0 255
-0.193544 0.844683 -0.227149 76 153 0
-0.203906 0.017259 -0.227149 76 153 0
0.367792 0.346833 0.044354 0 127 127
0.131994 0.832180 -0.227149 76 153 0
0.279027 0.906347 -0.169049 76 0 153
-0.175519 -0.825528 -0.198450 153 0 76
0.367792 -0.763801 0.148406 0 127 127
0.354389 -0.302109 0.108420 0 127 127
-0.360684 0.362221 -0.096895 127 0 127
0.286977 0.906347 -0.048679 76 0 153
-0.296043 -0.196101 0.223195 76 153 0
-0.031100 -0.476299 -0.227149 76 153 0
-0.121823 0.363170 0.206431 76 153 0
-0.077495 0.146629 0.206431 76 153 0
-0.281014 0.155428 0.223195 76 153 0
0.367792 0.873450 -0.139955 0 127 127
0.053638 0.762655 -0.234007 76 153 0
-0.360684 0.244635 -0.162379 127 0 127
-0.347280 0.331849 0.194655 127 0 127
-0.101622 0.174993 -0.234007 76 153 0
-0.245308 -0.550005 0.223195 76 153 0
0.252397 0.767697 -0.227149 76 153 0
0.238838 0.906347 0.128940 76 0 153
0.107992 0.436588 0.223195 153 0 76
-0.087263 0.547031 -0.227149 76 153 0
0.354389 -0.716124 -0.079036 0 127 127
0.061151 -0.571805 0.223195 153 0 76
-0.206482 0.390176 0.223195 76 153 0
0.056652 -0.807284 0.206431 153 0 76
-0.333144 0.484447 -0.234007 76 153 0
0.188806 -0.010463 0.206431 153 0 76
0.294553 0.864453 0.111151 76 0 153
0.367792 -0.476117 0.086543 0 127 127
0.367792 0.032160 0.064991 0 127 127
0.266012 0.315305 0.206431 153 0 76
0.300850 0.864453 0.048617 76 0 153
-0.293823 -0.734603 0.206431 76 153 0
0.274149 0.071318 0.223195 153 0 76
0.003554 0.113454 0.210535 76 153 0
0.176115 -0.434585 -0.227149 76 153 0
-0.360684 0.838982 0.082819 127 0 127
-0.040807 -0.467939 0.223195 76 153 0
0.150097 -0.677071 -0.234007 76 153 0
0.070063 0.122053 0.223195 153 0 76
-0.347280 0.104292 -0.138012 127 0 127
-0.043704 -0.347817 0.206431 76 153 0
0.163852 -0.310207 -0.234007 76 153 0
-0.327278 0.633252 0.206431 76 153 0
0.190329 -0.825528 -0.035332 153 0 76
-0.169233 -0.839245 0.184398 153 0 76
-0.347280 -0.211140 -0.010292 127 0 127
-0.241033 -0.387001 0.206431 76 153 0
0.123696 -0.236031 -0.234007 76 153 0
-0.347280 0.327387 -0.079594 127 0 127
0.138235 -0.839245 0.115180 153 0 76
-0.360684 0.378674 0.214029 127 0 127
-0.122412 0.158402 0.223195 76 153 0
-0.347280 -0.582248 -0.106643 127 0 127
-0.000982 -0.825528 -0.022641 153 0 76
0.080905 0.786264 0.223195 153 0 76
-0.347280 0.592085 0.200653 76 153 0
0.230605 -0.512361 0.223195 153 0 76
-0.360684 -0.245350 -0.150315 127 0 127
-0.277196 0.165214 -0.227149 76 153 0
0.274669 0.445664 -0.234007 76 153 0
-0.360684 -0.561699 -0.072617 127 0 127
-0.173116 -0.442335 -0.227149 76 153 0
-0.347280 0.140818 0.083101 127 0 127
0.070550 -0.514470 0.223195 153 0 76
0.042526 -0.213844 0.223195 153 0 76
-0.069434 0.881357 0.206431 76 153 0
0.108394 0.172902 0.223195 153 0 76
0.354389 -0.394556 -0.196855 0 127 127
0.041583 0.516506 0.223195 153 0 76
0.334643 0.906347 -0.054615 76 0 153
-0.124111 -0.526193 0.223195 76 153 0
0.367792 0.740295 0.078741 0 127 127
-0.360684 0.829624 0.040739 127 0 127
0.367792 0.825099 0.165144 0 127 127
-0.037030 -0.906377 -0.163835 204 51 127
0.164736 -0.839245 0.152216 153 0 76
0.102206 0.416679 -0.227149 76 153 0
-0.328779 0.906347 -0.017092 76 0 153
0.354389 0.282583 0.192143 0 127 127
0.142922 0.234073 0.206431 153 0 76
-0.360684 -0.743059 0.147877 127 0 127
0.118338 0.285033 0.206431 153 0 76
-0.201947 -0.213981 0.223195 76 153 0
-0.257105 0.906347 -0.199699 76 0 153
0.354389 -0.468686 -0.130111 0 127 127
-0.316885 0.691621 0.223195 76 153 0
-0.034891 0.183541 -0.234007 76 153 0
-0.347280 -0.171847 -0.106902 127 0 127
-0.175308 -0.756275 -0.227149 76 153 0
-0.124452 0.711997 0.206431 76 153 0
-0.090474 -0.807021 0.206431 76 153 0
-0.161517 0.641387 0.223195 76 153 0
0.346432 0.906347 0.138860 76 0 153
-0.183873 -0.397542 0.206431 76 153 0
0.344820 0.487375 0.206431 153 0 76
0.282172 -0.399586 0.206431 153 0 76
0.354389 -0.592867 -0.210703 0 127 127
-0.360684 -0.322430 0.180120 127 0 127
0.209102 -0.428241 -0.227149 76 153 0
-0.347280 -0.625354 -0.091970 127 0 127
0.338913 -0.167929 -0.234007 76 153 0
-0.254859 0.836526 0.206431 76 153 0
-0.360684 0.603392 -0.225603 76 153 0
-0.293407 0.673263 -0.227149 76 153 0
-0.106173 -0.839245 -0.002501 153 0 76
-0.347280 0.697798 0.083798 127 0 127
0.209183 -0.095752 0.223195 153 0 76
-0.180534 0.529525 0.223195 76 153 0
-0.000518 -0.614918 -0.234007 76 153 0
0.166418 -0.687127 0.206431 153 0 76
-0.267090 0.906347 0.192206 76 0 153
-0.344762 0.790776 -0.234007 76 153 0
0.367792 0.460203 -0.171178 0 127 127
-0.347280 -0.614343 -0.200366 127 0 127
0.207670 -0.825528 0.091943 153 0 76
0.346514 -0.298558 0.206431 153 0 76
-0.271267 0.307971 -0.234007 76 153 0
-0.236725 0.424048 -0.227149 76 153 0
0.367792 -0.357564 0.106642 0 127 127
-0.001751 -0.011099 0.206431 76 153 0
-0.153714 -0.826237 -0.234007 76 153 0
0.237362 0.864453 0.144584 76 0 153
0.367792 0.838271 -0.120180 0 127 127
0.158096 -0.839245 -0.082926 153 0 76
0.367792 0.694472 0.125528 0 127 127
0.202084 -0.212550 -0.227149 76 153 0
0.255600 -0.825528 -0.038169 153 0 76
-0.284604 -0.337098 0.223195 76 153 0
-0.330534 0.864453 -0.058444 76 0 153
0.086313 0.682996 0.223195 153 0 76
0.027234 -0.825528 0.191148 153 0 76
-0.111465 0.864453 -0.112313 76 0 153
0.233234 -0.657345 -0.227149 76 153 0
-0.103326 0.906347 -0.091070 76 0 153
-0.360684 0.439519 -0.074923 127 0 127
-0.347280 0.111301 -0.195419 127 0 127
-0.214026 0.808644 -0.227149 76 153 0
-0.203484 0.329576 -0.227149 76 153 0
0.318700 -0.540318 0.206431 153 0 76
0.354389 -0.329319 -0.201660 0 127 127
-0.210909 0.906347 0.153882 76 0 153
0.057604 0.864453 -0.123406 76 0 153
-0.331364 0.741532 0.206431 76 153 0
-0.323912 0.906347 0.075294 76 0 153
0.354389 0.387980 -0.203338 0 127 127
-0.360684 0.752634 -0.095143 127 0 127
0.354389 -0.521410 -0.122195 0 127 127
0.021696 -0.362165 -0.234007 76 153 0
-0.039864 -0.529787 0.206431 76 153 0
0.020935 0.864453 0.042864 76 0 153
0.053018 0.799658 0.206431 153 0 76
-0.360684 0.150619 0.219967 76 153 0
0.087581 0.864453 -0.069969 76 0 153
0.029284 -0.571706 -0.227149 76 153 0
-0.173487 -0.901358 0.152498 127 127 0
0.367792 -0.076631 -0.007987 0 127 127
-0.347280 0.640290 0.170086 127 0 127
0.167907 -0.794817 0.223195 153 0 76
-0.360684 -0.499617 0.059026 127 0 127
0.321539 -0.808678 0.223195 153 0 76
-0.187030 0.749987 -0.234007 76 153 0
0.367792 0.904101 0.028597 0 127 127
-0.162768 0.291602 -0.234007 76 153 0
-0.347280 -0.002355 -0.055422 127 0 127
0.039943 -0.376677 0.223195 153 0 76
0.052953 -0.664620 0.206431 153 0 76
0.323779 0.207006 -0.227149 76 153 0
-0.043493 0.765680 0.223195 76 153 0
0.367792 -0.277152 -0.011917 0 127 127
0.078400 0.497382 0.223195 153 0 76
-0.031237 0.906347 -0.196501 76 0 153
0.291771 -0.699665 0.206431 153 0 76
-0.075250 -0.481933 0.206431 76 153 0
0.003554 -0.108474 0.209629 76 153 0
0.354389 -0.597161 0.174923 0 127 127
-0.298806 0.805370 -0.234007 76 153 0
0.195918 0.864453 -0.108572 76 0 153
-0.164313 -0.225399 0.223195 76 153 0
-0.156814 0.385865 0.223195 76 153 0
-0.358829 0.537717 0.223195 76 153 0
-0.108448 -0.825528 0.173748 153 0 76
-0.347280 0.484590 -0.033997 127 0 127
0.367792 -0.350772 0.055699 0 127 127
-0.197506 0.747104 0.206431 76 153 0
-0.030328 0.665372 0.223195 76 153 0
-0.053317 -0.249611 -0.234007 76 153 0
-0.117339 0.220932 0.206431 76 153 0
0.268579 0.046388 -0.234007 76 153 0
0.269097 -0.166237 0.206431 153 0 76
-0.347280 -0.341030 -0.205253 127 0 127
-0.069983 -0.429209 -0.234007 76 153 0
-0.100700 -0.030586 0.206431 76 153 0
0.092487 -0.064261 0.206431 153 0 76
-0.347280 -0.259662 0.101410 127 0 127
-0.360684 -0.386203 0.101165 127 0 127
-0.360684 0.031738 0.139182 127 0 127
-0.360684 0.869870 -0.027765 127 0 127
0.308683 -0.063433 -0.234007 76 153 0
0.277071 -0.839245 0.009010 153 0 76
-0.347280 0.573905 -0.175232 127 0 127
-0.347280 0.438302 0.144745 127 0 127
-0.330703 0.084791 0.223195 76 153 0
0.140613 0.426236 0.206431 153 0 76
0.116905 0.906347 -0.053237 76 0 153
-0.347280 -0.808735 0.046767 127 0 127
0.308387 -0.925708 -0.165220 153 76 0
-0.074540 -0.900847 0.152498 127 127 0
-0.041907 -0.147009 0.223195 76 153 0
0.354389 0.247763 -0.204020 0 127 127
-0.320768 0.654386 -0.234007 76 153 0
0.367792 -0.755066 -0.201546 0 127 127
0.327436 -0.825528 0.123250 153 0 76
-0.347280 0.036776 -0.024339 127 0 127
0.344133 0.672850 0.223195 153 0 76
-0.265312 -0.867634 0.152498 127 127 0
-0.360684 -0.442867 0.090071 127 0 127
0.367792 -0.560178 -0.199976 0 127 127
0.367792 -0.475409 0.018801 0 127 127
0.354389 0.771473 -0.008867 0 127 127
0.171961 0.053138 -0.227149 76 153 0
-0.326142 -0.226529 0.206431 76 153 0
0.183363 -0.048021 0.206431 153 0 76
-0.014110 -0.825528 -0.084376 153 0 76
0.161945 -0.376657 -0.227149 76 153 0
-0.347280 0.258637 -0.077647 127 0 127
0.111682 -0.839245 -0.202725 153 0 76
-0.359957 -0.516792 -0.227149 127 0 127
-0.360684 0.516701 0.021073 127 0 127
-0.360684 0.339548 -0.157937 127 0 127
-0.308140 -0.839245 0.213383 76 153 0
0.367792 -0.399692 0.004538 0 127 127
0.367792 0.148584 0.119758 0 127 127
-0.318848 -0.566162 -0.234007 76 153 0
-0.358712 -0.839245 0.112413 127 0 127
0.064094 -0.765652 -0.227149 76 153 0
-0.082775 -0.839245 -0.024831 153 0 76
-0.186974 0.133433 0.223195 76 153 0
0.312087 0.874878 0.223195 153 0 76
0.339198 -0.839245 0.172461 153 0 76
-0.332366 0.178387 0.206431 76 153 0
0.366761 0.721329 0.223195 0 127 127
0.260728 0.455857 0.206431 153 0 76
-0.006116 -0.741648 0.206431 76 153 0
0.303180 -0.925708 0.064012 76 0 153
0.212920 0.906347 -0.078045 76 0 153
-0.071632 0.467763 0.223195 76 153 0
-0.360684 0.594637 -0.051487 127 0 127
0.062951 -0.825528 0.154315 153 0 76
-0.155945 -0.708626 0.206431 76 153 0
0.138905 0.178037 0.206431 153 0 76
-0.005139 0.465736 0.206431 76 153 0
-0.347280 0.196125 0.041822 127 0 127
-0.283800 -0.444270 -0.234007 76 153 0
0.367792 -0.166758 -0.131272 0 127 127
-0.026231 -0.542809 -0.227149 76 153 0
0.367792 0.616832 -0.202141 0 127 127
0.199018 -0.728876 0.223195 153 0 76
0.299319 0.145400 0.223195 153 0 76
-0.175678 0.597891 0.206431 76 153 0
0.367792 -0.496589 -0.064487 0 127 127
0.046389 0.359041 0.206431 153 0 76
-0.360684 0.352090 0.155761 127 0 127
-0.329707 -0.853173 0.145640 127 127 0
0.233210 0.767075 0.223195 153 0 76
0.129851 -0.034103 -0.234007 76 153 0
0.016140 -0.318463 0.210955 153 0 76
-0.347280 0.454373 0.174135 127 0 127
0.285267 0.234973 0.223195 153 0 76
-0.211687 -0.839245 -0.158985 153 0 76
0.354389 -0.533375 -0.015028 0 127 127
-0.237410 -0.437858 -0.234007 76 153 0
-0.218809 0.393284 -0.227149 76 153 0
-0.285704 0.702177 0.223195 76 153 0
0.234222 -0.602212 -0.234007 76 153 0
-0.200658 -0.426424 0.223195 76 153 0
0.098451 0.537439 0.206431 153 0 76
-0.066819 -0.839245 -0.074295 153 0 76
0.354389 0.135396 -0.195819 0 127 127
-0.175177 0.906347 0.099010 76 0 153
0.367792 0.076224 0.202320 153 0 76
0.014246 0.175826 0.223627 153 0 76
0.289042 -0.025823 0.223195 153 0 76
0.124561 -0.412439 0.223195 153 0 76
-0.360684 -0.091848 0.021842 127 0 127
-0.183970 0.864453 -0.100704 76 0 153
-0.038180 0.540505 0.223195 76 153 0
0.337981 -0.236568 0.206431 153 0 76
0.354389 0.699811 -0.092915 0 127 127
0.367792 -0.248670 0.027908 0 127 127
0.354389 0.619525 0.191265 0 127 127
-0.347280 0.124977 -0.166453 127 0 127
-0.010812 0.906347 0.053124 76 0 153
-0.328497 0.906347 0.155642 76 0 153
-0.261522 0.014654 -0.234007 76 153 0
-0.250511 0.086099 -0.227149 76 153 0
-0.360684 -0.107464 -0.145162 127 0 127
-0.360684 0.374634 -0.041585 127 0 127
-0.347280 0.768735 -0.173651 127 0 127
0.137590 0.677661 0.223195 153 0 76
0.138543 0.904136 -0.234007 76 0 153
0.366848 -0.362803 0.206431 0 127 127
0.245702 0.906181 0.208528 76 0 153
0.166870 -0.420398 0.206431 153 0 76
-0.215327 -0.825528 0.145844 153 0 76
0.333071 0.041901 -0.227149 76 153 0
-0.347280 0.633501 0.034141 127 0 127
0.367792 -0.035941 0.145445 0 127 127
-0.355628 -0.732907 -0.227149 76 153 0
0.237701 0.906347 0.031724 76 0 153
-0.251866 -0.839245 0.203239 153 0 76
-0.226719 0.773826 0.206431 76 153 0
-0.360684 0.253356 0.108164 127 0 127
0.354389 -0.748695 0.051668 0 127 127
-0.073225 -0.408159 0.223195 76 153 0
-0.207830 0.906347 0.040825 76 0 153
-0.331386 0.204038 -0.227149 76 153 0
-0.147515 0.093384 0.206431 76 153 0
-0.360684 0.552342 -0.117113 127 0 127
0.117807 -0.759482 -0.227149 76 153 0
0.367792 0.073452 0.115963 0 127 127
-0.290661 -0.395991 0.206431 76 153 0
-0.347280 -0.343772 0.140292 127 0 127
-0.321820 0.336690 0.223195 76 153 0
0.257127 0.382025 -0.234007 76 153 0
0.223502 0.537609 0.223195 153 0 76
0.026711 0.182635 -0.234007 76 153 0
0.349624 0.434574 0.223195 0 127 127
-0.058892 0.038000 -0.227149 76 153 0
0.367792 -0.050413 -0.102664 0 127 127
0.164471 0.290347 0.223195 153 0 76
0.053991 -0.607378 0.206431 153 0 76
-0.360684 -0.220143 -0.129051 127 0 127
-0.360684 0.198985 0.194901 127 0 127
-0.347280 0.070367 0.111944 127 0 127
0.245935 -0.296273 0.206431 153 0 76
0.231445 -0.552913 -0.227149 76 153 0
0.317019 -0.825528 0.192037 153 0 76
-0.307061 0.501624 0.206431 76 153 0
-0.014165 0.880714 0.206431 76 153 0
0.121598 -0.090855 -0.227149 76 153 0
0.354389 0.504653 0.003942 0 127 127
-0.332331 0.906347 -0.205381 76 0 153
-0.093415 0.864453 0.122331 76 0 153
0.296247 0.659946 -0.227149 76 153 0
-0.026581 0.710024 0.223195 76 153 0
-0.112706 -0.381189 0.223195 76 153 0
-0.262170 -0.671842 -0.227149 76 153 0
-0.360684 -0.258204 -0.042657 127 0 127
0.367792 -0.708692 0.145243 0 127 127
-0.159652 0.338351 0.206431 76 153 0
-0.360684 -0.714502 -0.149075 127 0 127
-0.010885 -0.002197 -0.227149 76 153 0
0.359332 0.134516 0.206431 153 0 76
0.054961 0.733982 0.206431 153 0 76
0.063448 -0.576832 -0.227149 76 153 0
-0.091496 -0.596592 0.223195 76 153 0
-0.347280 0.289668 0.152502 127 0 127
-0.118606 -0.386702 -0.227149 76 153 0
0.009738 -0.847017 -0.166436 204 51 127
0.354389 -0.676315 -0.168506 0 127 127
-0.360684 0.813061 0.218334 76 153 0
-0.360684 -0.235111 -0.201144 127 0 127
0.291105 -0.763118 0.223195 153 0 76
0.367792 0.127674 -0.141329 0 127 127
0.367792 -0.167139 0.089356 0 127 127
-0.175602 0.696999 0.206431 76 153 0
-0.044896 -0.702829 -0.234007 76 153 0
0.367792 -0.806844 -0.054208 0 127 127
0.005966 -0.839245 -0.133782 153 0 76
0.037759 0.240458 0.223195 153 0 76
0.097891 -0.183539 0.206431 153 0 76
-0.051164 -0.436337 0.206431 76 153 0
0.229118 0.053675 0.206431 153 0 76
0.266861 -0.446348 -0.227149 76 153 0
-0.159771 0.283596 0.223195 76 153 0
0.367792 -0.594090 0.068446 0 127 127
-0.081405 -0.154837 -0.234007 76 153 0
0.339893 -0.825528 0.079716 153 0 76
0.029896 0.690932 -0.227149 76 153 0
0.119888 -0.421488 -0.234007 76 153 0
-0.360684 0.577159 -0.004051 127 0 127
0.367792 0.650962 0.126024 0 127 127
-0.149379 0.906347 -0.136272 76 0 153
0.367792 0.006450 -0.133274 0 127 127
0.226454 0.736433 0.206431 153 0 76
-0.288397 0.906347 0.111203 76 0 153
-0.360684 -0.195562 0.147255 127 0 127
0.083541 -0.338467 0.206431 153 0 76
-0.278717 0.488430 0.223195 76 153 0
0.257969 0.384987 0.223195 153 0 76
-0.078599 0.752761 -0.234007 76 153 0
-0.261413 -0.755136 0.206431 76 153 0
0.108509 0.906347 0.140444 76 0 153
0.249111 0.864453 -0.067144 76 0 153
-0.360684 0.435894 0.202178 76 153 0
-0.147175 -0.172703 0.223195 76 153 0
-0.360684 -0.585153 0.045353 127 0 127
-0.185282 -0.767673 0.223195 76 153 0
0.164119 0.158352 -0.234007 76 153 0
-0.360684 0.049576 0.030567 127 0 127
0.237965 0.864453 0.077486 76 0 153
-0.289025 -0.469862 0.206431 76 153 0
0.285933 -0.186982 0.223195 153 0 76
-0.347280 -0.479670 0.184929 127 0 127
0.004956 0.297524 -0.227149 76 153 0
-0.333497 -0.264666 0.206431 76 153 0
0.367792 -0.514300 0.042440 0 127 127
0.184500 -0.276000 0.206431 153 0 76
0.354389 -0.216348 -0.104185 0 127 127
-0.336216 -0.610197 0.223195 76 153 0
0.228561 -0.839245 -0.099013 153 0 76
0.283585 -0.247578 0.206431 153 0 76
0.215069 0.520994 -0.227149 76 153 0
-0.142693 0.480676 0.223195 76 153 0
0.115846 0.864453 -0.083871 76 0 153
0.107452 0.233627 0.206431 153 0 76
0.061809 0.205430 -0.234007 76 153 0
-0.257942 -0.342443 0.206431 76 153 0
0.292071 0.413182 0.206431 153 0 76
-0.328258 0.422493 0.206431 76 153 0
-0.347280 -0.063493 0.198297 127 0 127
0.367792 -0.824853 0.217501 153 0 76
0.367792 -0.744273 0.184942 0 127 127
-0.163134 -0.044949 0.223195 76 153 0
0.059140 0.864453 0.103005 76 0 153
-0.347280 0.512125 -0.203517 127 0 127
0.118312 0.336930 0.206431 153 0 76
-0.243241 -0.290986 0.206431 76 153 0
-0.252378 0.105216 0.223195 76 153 0
-0.360684 -0.799839 0.130657 127 0 127
0.308249 0.655542 0.223195 153 0 76
0.359768 0.318839 -0.234007 0 127 127
-0.295705 0.545158 -0.234007 76 153 0
-0.209640 0.425273 0.223195 76 153 0
0.367792 0.086193 -0.082748 0 127 127
0.354389 0.696844 0.042203 0 127 127
0.303748 0.333345 -0.227149 76 153 0
-0.156221 -0.870504 0.145640 127 127 0
-0.122716 -0.757484 0.206431 76 153 0
-0.360684 -0.246019 0.190370 127 0 127
-0.070211 0.906347 0.068471 76 0 153
0.367792 -0.570110 -0.152505 0 127 127
-0.339067 -0.390408 0.206431 127 0 127
-0.351175 -0.782961 0.223195 76 153 0
-0.018976 -0.664024 0.223195 76 153 0
0.367792 -0.305485 0.025102 0 127 127
-0.360684 -0.182524 0.068313 127 0 127
-0.360684 0.032077 -0.191497 127 0 127
-0.360684 -0.070054 0.052610 127 0 127
-0.360684 -0.619609 -0.042468 127 0 127
0.336092 0.429992 -0.227149 76 153 0
0.242211 -0.810710 -0.234007 76 153 0
0.164381 -0.278739 -0.234007 76 153 0
0.000197 0.312526 0.206431 76 153 0
0.014696 -0.365083 0.206431 153 0 76
-0.126253 0.100372 -0.234007 76 153 0
0.269565 -0.111411 0.206431 153 0 76
-0.179882 0.219160 0.206431 76 153 0
0.332917 -0.383594 0.206431 153 0 76
0.367792 0.545656 0.127786 0 127 127
-0.200807 0.573045 -0.234007 76 153 0
0.367792 0.539417 -0.043285 0 127 127
-0.259705 0.863786 0.223195 76 153 0
-0.347280 -0.267543 0.068640 127 0 127
-0.347280 -0.031670 0.197070 127 0 127
-0.235964 0.340925 0.223195 76 153 0
-0.360684 0.169968 -0.212219 127 0 127
-0.131087 0.236016 -0.234007 76 153 0
-0.198894 -0.644804 -0.227149 76 153 0
-0.212927 -0.726979 0.206431 76 153 0
0.354389 0.156451 0.031485 0 127 127
-0.005148 0.746599 0.206431 76 153 0
0.354389 -0.158328 0.194870 153 0 76
0.342702 -0.233925 -0.227149 76 153 0
0.016464 0.906347 -0.061718 76 0 153
-0.264301 -0.626662 -0.234007 76 153 0
0.213130 0.712160 -0.234007 76 153 0
-0.347280 -0.434873 0.195227 76 153 0
-0.360684 0.817792 -0.203487 127 0 127
0.367792 0.491170 0.114230 0 127 127
0.258458 0.707513 0.206431 153 0 76
-0.347280 0.135181 0.195080 127 0 127
-0.257666 0.797921 0.223195 76 153 0
-0.074959 0.864453 -0.154900 76 0 153
0.132252 -0.825528 -0.041130 153 0 76
-0.033726 0.906347 0.121919 76 0 153
0.152608 0.607482 -0.234007 76 153 0
0.367792 -0.040711 -0.170982 0 127 127
-0.028644 -0.628550 0.223195 76 153 0
-0.293886 -0.167890 -0.234007 76 153 0
0.257582 -0.505366 0.206431 153 0 76
0.254709 0.879173 -0.227149 76 153 0
-0.263233 0.412420 0.223195 76 153 0
-0.347280 -0.457988 -0.071829 127 0 127
-0.203795 -0.899959 0.145640 127 127 0
0.207681 0.400777 0.223195 153 0 76
0.354389 0.551433 -0.121368 0 127 127
0.354389 0.064382 -0.139467 0 127 127
-0.332459 -0.084572 -0.234007 76 153 0
0.119176 -0.157358 0.206431 153 0 76
-0.249588 -0.009004 0.206431 76 153 0
-0.360684 0.590574 0.084084 127 0 127
0.003909 0.026360 0.206431 153 0 76
-0.347280 0.560304 0.196955 76 153 0
0.367792 0.503354 0.222167 153 0 76
-0.138724 0.569908 0.206431 76 153 0
0.367792 0.508036 -0.036769 0 127 127
-0.304453 -0.925922 -0.139843 0 0 255
-0.090183 -0.805691 -0.234007 76 153 0
-0.336944 -0.355813 0.206431 76 153 0
-0.360684 -0.089703 0.078796 127 0 127
0.308486 0.060787 0.206431 153 0 76
-0.347280 -0.544382 0.016795 127 0 127
0.103859 -0.714230 0.206431 153 0 76
0.085780 -0.370279 -0.227149 76 153 0
-0.347280 0.538202 -0.048780 127 0 127
0.354389 -0.740100 -0.177820 0 127 127
0.216302 -0.275678 -0.234007 76 153 0
-0.207031 0.214498 -0.234007 76 153 0
0.320743 0.166800 0.206431 153 0 76
-0.360684 0.773831 -0.066325 127 0 127
0.240370 -0.842585 0.145640 127 127 0
-0.347280 0.153817 0.162442 127 0 127
0.082196 0.906347 -0.109663 76 0 153
-0.305874 0.275355 0.223195 76 153 0
-0.183279 0.513342 -0.234007 76 153 0
0.293784 0.752823 -0.227149 76 153 0
-0.347280 -0.527114 0.149232 127 0 127
0.367792 0.233227 0.182755 0 127 127
-0.259528 0.526320 0.206431 76 153 0
-0.127868 0.371465 -0.227149 76 153 0
0.089714 -0.223374 0.223195 153 0 76
-0.347280 0.817364 -0.025760 127 0 127
0.288937 0.444199 0.223195 153 0 76
0.367792 -0.208587 0.070458 0 127 127
-0.360684 -0.312850 0.116086 127 0 127
0.354389 0.791144 -0.062511 0 127 127
0.060347 0.831742 0.223195 153 0 76
-0.347280 0.546763 0.164681 127 0 127
-0.032318 -0.861812 0.056179 153 0 76
0.033805 0.864453 -0.070687 76 0 153
-0.150158 0.568512 -0.234007 76 153 0
0.354389 0.181214 -0.134408 0 127 127
0.032213 -0.839245 0.096762 153 0 76
-0.244843 -0.482303 0.206431 76 153 0
0.290888 -0.870164 -0.181001 153 76 0
-0.347280 0.520658 -0.122266 127 0 127
0.154684 -0.195463 0.223195 153 0 76
0.329150 0.177451 -0.234007 76 153 0
0.367792 -0.749847 -0.122690 0 127 127
-0.357649 0.705327 0.223195 76 153 0
-0.236611 0.904448 0.206431 76 0 153
0.093891 0.864453 0.124543 76 0 153
-0.008765 0.259211 0.223627 76 153 0
0.153047 0.107894 -0.234007 76 153 0
0.260693 -0.838938 0.206431 153 0 76
-0.360684 -0.008378 -0.124883 127 0 127
-0.347280 -0.228712 0.045345 127 0 127
-0.053511 -0.839245 -0.128940 153 0 76
0.354389 -0.537220 0.193657 0 127 127
0.000124 0.712856 0.206431 153 0 76
0.158753 -0.112274 0.223195 153 0 76
-0.295392 -0.519685 -0.227149 76 153 0
0.234027 0.906347 -0.108598 76 0 153
-0.360684 -0.505024 -0.049731 127 0 127
-0.046455 -0.812790 0.206431 76 153 0
-0.100309 0.322664 0.206431 76 153 0
-0.347280 -0.119450 0.170533 127 0 127
-0.347280 0.301710 -0.200056 127 0 127
-0.132950 -0.426318 0.223195 76 153 0
0.012238 -0.839245 -0.071959 153 0 76
-0.090782 -0.825528 0.031271 153 0 76
-0.338024 -0.396112 -0.227149 76 153 0
0.223997 -0.749621 0.223195 153 0 76
-0.098026 -0.450555 0.206431 76 153 0
-0.199444 -0.089308 0.206431 76 153 0
-0.360684 -0.409512 -0.013215 127 0 127
-0.320075 0.111183 0.206431 76 153 0
-0.360684 0.107777 0.031976 127 0 127
-0.045272 -0.015454 0.223195 76 153 0
-0.036634 -0.306416 0.223195 76 153 0
0.277020 -0.825528 0.080420 153 0 76
0.010194 -0.165133 0.206431 153 0 76
0.097865 0.060532 -0.234007 76 153 0
-0.205275 0.906347 0.075329 76 0 153
-0.360684 -0.125829 0.054400 127 0 127
0.009087 -0.825528 0.145857 153 0 76
-0.360684 -0.832729 -0.065920 127 0 127
-0.229669 -0.767336 -0.234007 76 153 0
-0.360684 0.792047 0.084081 127 0 127
-0.347689 0.379902 -0.234007 127 0 127
-0.325712 -0.900323 0.152498 127 127 0
0.178341 0.204223 0.206431 153 0 76
0.354389 0.644387 0.084280 0 127 127
0.314868 -0.470193 0.223195 153 0 76
-0.263114 -0.226221 0.223195 76 153 0
-0.356815 0.214753 0.223195 76 153 0
0.191994 -0.155145 0.206431 153 0 76
0.277899 0.776079 0.223195 153 0 76
0.299362 0.528048 0.223195 153 0 76
-0.284127 -0.388210 -0.234007 76 153 0
-0.023408 -0.899275 0.145640 127 127 0
-0.347280 -0.085430 -0.023725 127 0 127
0.367792 0.313731 -0.002985 0 127 127
0.271657 0.865378 0.206431 76 0 153
0.329565 0.906347 0.072154 76 0 153
0.063592 -0.164784 0.206431 153 0 76
0.367792 0.489801 0.052359 0 127 127
-0.091646 -0.494953 -0.234007 76 153 0
0.353938 -0.825528 -0.207640 0 127 127
-0.281962 -0.925708 -0.175593 0 0 255
-0.198143 -0.574625 0.206431 76 153 0
-0.300232 -0.005093 -0.227149 76 153 0
-0.360684 0.832743 0.179447 127 0 127
-0.347280 -0.340513 -0.075658 127 0 127
0.049123 0.440014 0.223195 153 0 76
0.041529 0.864453 -0.025572 76 0 153
0.002391 0.864453 0.073959 76 0 153
-0.174391 -0.124718 -0.234007 76 153 0
0.354389 0.186901 0.030819 0 127 127
0.243886 -0.009395 0.206431 153 0 76
-0.347280 0.704792 0.174491 127 0 127
-0.228239 0.598642 0.223195 76 153 0
0.367792 0.056968 -0.203762 0 127 127
0.042778 0.906347 0.134741 76 0 153
-0.309497 -0.256251 -0.227149 76 153 0
-0.175612 0.455249 -0.234007 76 153 0
-0.239084 0.212139 -0.234007 76 153 0
0.172614 0.705289 -0.227149 76 153 0
0.367792 -0.646759 0.214430 0 127 127
-0.298022 -0.763603 -0.234007 76 153 0
-0.242979 -0.170720 0.206431 76 153 0
-0.298246 -0.350781 -0.234007 76 153 0
0.138807 0.042599 0.206431 153 0 76
-0.032349 0.906347 0.013739 76 0 153
-0.258642 0.864453 -0.202163 76 0 153
-0.347280 -0.361301 -0.129290 127 0 127
-0.003569 0.685561 -0.234007 76 153 0
-0.360684 -0.278326 -0.015050 127 0 127
-0.298068 0.864453 -0.157388 76 0 153
-0.360684 0.329348 0.133237 127 0 127
0.236787 -0.246381 0.206431 153 0 76
0.367792 -0.225338 -0.036906 0 127 127
0.041696 0.634013 -0.227149 76 153 0
-0.053878 -0.839245 0.152648 127 127 0
-0.347280 0.529645 0.110103 127 0 127
0.197884 0.803816 -0.234007 76 153 0
0.362242 -0.134123 -0.227149 76 153 0
0.340870 -0.739083 -0.234007 76 153 0
-0.360684 0.033525 0.202112 76 153 0
0.123408 0.556448 -0.227149 76 153 0
0.367792 0.127350 -0.047781 0 127 127
-0.096013 -0.292315 -0.227149 76 153 0
0.203121 -0.321314 -0.234007 76 153 0
0.367792 -0.496324 -0.019331 0 127 127
-0.360684 0.640736 -0.222789 127 0 127
-0.288140 -0.925708 0.053696 255 0 0
-0.335804 -0.733556 0.206431 76 153 0
0.159995 0.864453 -0.203013 76 0 153
0.209028 0.405205 -0.227149 76 153 0
0.071834 0.602859 0.223195 153 0 76
0.343536 -0.381215 -0.227149 76 153 0
-0.122229 0.864453 0.067726 76 0 153
0.354389 0.290067 -0.106842 0 127 127
0.118749 -0.273617 -0.227149 76 153 0
-0.360684 -0.283587 0.222894 76 153 0
0.217238 0.864453 0.188860 76 0 153
-0.182755 -0.264133 0.223195 76 153 0
-0.246309 0.906347 -0.165237 76 0 153
-0.328993 0.430248 -0.234007 76 153 0
-0.195142 0.645289 -0.234007 76 153 0
0.014700 -0.675234 -0.227149 76 153 0
0.050272 0.022633 0.223195 153 0 76
-0.360684 0.163005 0.098541 127 0 127
0.354389 0.517235 0.068460 0 127 127
0.367792 0.346305 0.014197 0 127 127
0.314807 0.490348 0.206431 153 0 76
-0.178465 0.191780 -0.227149 76 153 0
0.239668 0.492116 -0.234007 76 153 0
0.080403 0.864453 -0.157080 76 0 153
-0.347280 0.298399 0.187010 127 0 127
-0.234544 -0.527679 -0.234007 76 153 0
-0.077797 -0.004414 0.206431 76 153 0
-0.050303 -0.374757 0.223195 76 153 0
-0.360684 0.291725 0.062956 127 0 127
0.271066 -0.078038 0.206431 153 0 76
-0.155357 -0.825528 -0.042706 153 0 76
0.259641 -0.333244 0.223195 153 0 76
0.074894 0.103841 -0.234007 76 153 0
-0.360684 0.192984 0.103432 127 0 127
-0.360684 -0.741000 -0.096388 127 0 127
-0.052111 -0.147925 -0.234007 76 153 0
0.354389 -0.795163 0.072428 0 127 127
0.367792 0.716260 0.014410 0 127 127
0.221681 -0.839245 -0.019613 153 0 76
-0.360684 0.689514 0.016032 127 0 127
0.090195 0.686792 -0.227149 76 153 0
-0.160774 -0.825528 -0.127657 153 0 76
0.307245 0.864453 -0.169433 76 0 153
-0.347280 0.669896 0.130481 127 0 127
0.345588 0.765954 -0.227149 76 153 0
0.237677 0.906347 -0.035017 76 0 153
0.367792 -0.424073 -0.046244 0 127 127
-0.360684 0.740617 -0.206430 127 0 127
0.049950 -0.275675 0.206431 153 0 76
0.091740 0.845627 0.223195 153 0 76
-0.250262 -0.839245 -0.115996 153 0 76
0.362619 -0.185081 -0.227149 76 153 0
-0.360684 -0.608194 0.009221 127 0 127
0.354389 0.412558 -0.155046 0 127 127
-0.284540 0.864453 0.176332 76 0 153
-0.233223 0.705935 0.223195 76 153 0
-0.347280 0.587692 -0.137496 127 0 127
-0.123761 -0.869660 0.145640 127 127 0
-0.072112 0.704442 -0.227149 76 153 0
0.010510 -0.780394 -0.227149 76 153 0
0.359071 -0.067048 0.223195 153 0 76
0.055217 -0.632822 -0.234007 76 153 0
0.367792 0.540874 0.026145 0 127 127
0.367792 0.060865 0.075829 0 127 127
-0.360684 -0.550962 0.093460 127 0 127
-0.169242 -0.489277 0.206431 76 153 0
-0.295272 0.208751 0.223195 76 153 0
-0.210334 0.651733 0.223195 76 153 0
0.354389 -0.005618 -0.050745 0 127 127
0.354389 0.756771 -0.113472 0 127 127
0.058550 -0.825528 -0.166533 153 0 76
-0.360684 0.108425 0.193694 127 0 127
-0.238234 0.864453 -0.011992 76 0 153
0.367792 -0.286915 -0.197249 0 127 127
0.142158 -0.240088 0.223195 153 0 76
0.210360 0.259894 -0.227149 76 153 0
0.237766 -0.825528 0.057037 153 0 76
0.354389 0.847732 -0.083362 0 127 127
-0.360684 -0.020644 0.054247 127 0 127
0.002194 -0.255777 0.206431 153 0 76
-0.224277 -0.825528 -0.102894 153 0 76
0.367792 -0.439339 -0.145186 0 127 127
0.039523 -0.082609 0.206431 153 0 76
0.252365 -0.716298 0.223195 153 0 76
0.245210 -0.653670 0.206431 153 0 76
-0.161899 -0.809704 0.206431 76 153 0
-0.255056 -0.684432 0.206431 76 153 0
-0.347280 0.816662 0.150822 127 0 127
-0.173973 0.754788 0.223195 76 153 0
-0.291442 -0.847017 0.087849 255 0 0
0.367792 0.299428 -0.132453 0 127 127
-0.323096 -0.695426 -0.234007 76 153 0
-0.062353 0.631198 0.206431 76 153 0
-0.160116 0.429349 0.223195 76 153 0
0.354389 0.714988 0.096423 0 127 127
-0.360684 0.335726 -0.218486 76 153 0
0.083236 -0.186144 -0.234007 76 153 0
0.292914 0.864453 -0.208703 76 0 153
-0.267468 0.021365 0.206431 76 153 0
-0.215602 0.366984 0.206431 76 153 0
-0.189096 -0.797951 -0.234007 76 153 0
-0.145900 0.906347 -0.038697 76 0 153
0.112649 0.666989 0.206431 153 0 76
0.154721 -0.461560 0.206431 153 0 76
0.173267 0.143298 0.223195 153 0 76
-0.224774 -0.839245 0.041079 153 0 76
-0.360684 -0.446786 -0.226939 127 0 127
0.013131 0.517332 0.206431 153 0 76
0.354389 -0.084720 0.062202 0 127 127
-0.200145 0.906347 -0.077487 76 0 153
-0.120713 -0.920107 0.145640 127 127 0
-0.117107 -0.106902 -0.234007 76 153 0
0.279156 -0.825528 -0.019914 153 0 76
0.367792 -0.503990 0.142036 0 127 127
-0.336613 0.230295 0.206431 76 153 0
-0.318128 -0.825528 0.150653 153 0 76
0.354389 0.689254 0.178783 0 127 127
-0.155834 0.682942 -0.227149 76 153 0
0.049186 0.906347 -0.039827 76 0 153
-0.145461 -0.641380 -0.227149 76 153 0
-0.289923 -0.529297 0.223195 76 153 0
-0.281845 -0.825528 0.123121 153 0 76
-0.360684 0.444362 -0.169455 127 0 127
0.138958 -0.312521 0.223195 153 0 76
-0.185074 0.632996 0.206431 76 153 0
0.105061 -0.125279 0.206431 153 0 76
0.227005 0.292398 0.206431 153 0 76
-0.082870 -0.261838 -0.227149 76 153 0
0.297851 -0.398303 -0.234007 76 153 0
-0.099160 0.375994 0.223195 76 153 0
0.365197 0.023676 -0.227149 76 153 0
-0.274482 0.644271 0.206431 76 153 0
0.109342 -0.669710 0.206431 153 0 76
-0.360684 0.823956 -0.148304 127 0 127
-0.032707 0.829782 0.206431 76 153 0
0.354389 0.238975 -0.156999 0 127 127
0.196512 -0.839245 0.035098 153 0 76
0.034272 0.245211 -0.227149 76 153 0
0.330343 0.243519 0.223195 153 0 76
0.228776 -0.013262 -0.234007 76 153 0
-0.032413 0.877139 -0.234007 76 153 0
-0.347280 0.164018 -0.150113 127 0 127
0.064972 0.136055 -0.227149 76 153 0
0.367792 -0.073503 -0.147673 0 127 127
-0.331124 -0.696799 0.206431 76 153 0
-0.162444 0.789035 -0.234007 76 153 0
0.149687 -0.057100 0.223195 153 0 76
0.367792 0.868646 -0.205724 76 0 153
-0.360684 -0.648464 -0.035518 127 0 127
-0.347280 0.016862 0.080857 127 0 127
0.367792 0.003723 -0.089826 0 127 127
-0.004116 -0.038212 -0.227149 76 153 0
0.032255 -0.394204 -0.227149 76 153 0
0.001829 -0.504636 -0.234007 76 153 0
-0.014974 -0.277130 -0.234007 76 153 0
0.085889 0.906347 0.038019 76 0 153
-0.092938 0.269514 0.206431 76 153 0
0.285721 -0.825528 -0.074983 153 0 76
-0.177746 -0.491908 -0.234007 76 153 0
-0.121904 -0.322771 0.223195 76 153 0
0.339535 -0.917891 0.145640 127 127 0
-0.347280 0.054918 0.071030 127 0 127
0.354389 -0.009731 0.136861 0 127 127
-0.336778 -0.839245 0.199974 76 153 0
0.354389 -0.115292 -0.138394 0 127 127
0.250695 -0.825528 -0.200896 153 0 76
-0.269015 -0.104557 -0.227149 76 153 0
-0.360684 0.532880 -0.233934 127 0 127
0.103009 -0.277149 0.206431 153 0 76
-0.295682 -0.864207 -0.179439 0 0 255
-0.360684 0.105477 0.141888 127 0 127
0.334537 0.713495 0.206431 153 0 76
0.115546 -0.584417 0.223195 153 0 76
-0.086389 0.411131 -0.227149 76 153 0
0.039403 -0.016551 0.223195 153 0 76
-0.042902 0.864453 -0.141288 76 0 153
-0.006414 0.473874 -0.234007 76 153 0
0.350895 0.864453 0.067034 0 127 127
0.076992 -0.337157 -0.227149 76 153 0
0.013476 0.906347 0.117623 76 0 153
-0.185934 -0.178546 0.223195 76 153 0
-0.347280 0.210573 -0.068920 127 0 127
0.296889 0.217051 -0.234007 76 153 0
0.285092 0.585995 0.206431 153 0 76
-0.052461 0.906347 -0.043463 76 0 153
-0.134724 -0.542755 -0.234007 76 153 0
-0.057613 0.404293 0.223195 76 153 0
0.000082 0.639253 -0.227149 76 153 0
0.241390 0.032676 -0.234007 76 153 0
0.084470 -0.404298 -0.234007 76 153 0
-0.167650 -0.217289 -0.227149 76 153 0
0.228401 0.363336 0.223195 153 0 76
0.301622 0.864453 -0.038754 76 0 153
-0.360684 -0.591032 0.222364 76 153 0
0.348689 -0.839245 -0.012733 0 127 127
0.367792 0.788452 -0.102718 0 127 127
0.367792 0.714441 -0.208991 0 127 127
0.367792 -0.297104 0.140420 0 127 127
0.367792 0.520994 -0.196228 0 127 127
0.052344 -0.839245 0.184147 153 0 76
0.297674 0.626840 0.206431 153 0 76
0.137628 -0.707715 0.206431 153 0 76
-0.115013 0.760742 0.223195 76 153 0
0.175593 -0.764922 -0.234007 76 153 0
-0.347280 0.880045 0.036816 76 0 153
-0.011829 0.620402 0.223627 76 153 0
0.367792 -0.807522 0.043313 0 127 127
-0.347280 0.663189 -0.145300 127 0 127
0.297323 -0.825528 0.129573 153 0 76
0.131564 -0.698867 -0.227149 76 153 0
-0.015754 -0.392948 0.206431 76 153 0
0.308995 -0.825528 -0.126454 153 0 76
0.367792 -0.777658 0.202770 0 127 127
-0.042082 -0.925708 0.090817 153 0 76
0.226532 0.668598 0.206431 153 0 76
-0.193040 -0.825528 0.121410 153 0 76
-0.052661 0.274876 -0.234007 76 153 0
-0.219430 0.491421 -0.227149 76 153 0
-0.298838 -0.839245 -0.070146 153 0 76
-0.347280 -0.637518 0.092077 127 0 127
0.002376 -0.797304 0.206431 76 153 0
0.367792 0.771991 0.196814 0 127 127
-0.360684 0.251481 0.042857 127 0 127
0.208113 -0.825528 -0.173034 153 0 76
0.367792 -0.558304 0.132951 0 127 127
0.367792 0.619008 0.128845 0 127 127
0.106408 0.864453 -0.022927 76 0 153
-0.104758 0.521788 0.223195 76 153 0
0.078341 -0.830403 0.223195 153 0 76
-0.229605 0.871729 -0.227149 76 0 153
0.103551 0.870444 -0.234007 76 153 0
0.116785 0.117804 -0.234007 76 153 0
0.354389 -0.773078 -0.087884 0 127 127
-0.360684 -0.770423 -0.039241 127 0 127
0.207148 -0.478547 0.223195 153 0 76
-0.106164 -0.018296 -0.234007 76 153 0
0.338763 -0.563264 0.223195 153 0 76
0.048145 0.906347 -0.200407 76 0 153
0.160731 0.864453 0.022330 76 0 153
0.367792 -0.767060 -0.174791 0 127 127
0.332463 0.906347 0.113085 76 0 153
-0.347280 -0.648187 0.036789 127 0 127
0.113814 -0.811576 0.206431 153 0 76
0.315016 0.804108 -0.227149 76 153 0
0.062342 0.264659 -0.234007 76 153 0
-0.126516 -0.652084 0.206431 76 153 0
0.036209 -0.729938 -0.234007 76 153 0
0.367792 -0.429146 0.045011 0 127 127
-0.360684 0.110584 0.085434 127 0 127
0.115869 -0.382157 0.223195 153 0 76
0.021444 -0.426070 0.223068 153 0 76
0.367792 0.603810 -0.149159 0 127 127
-0.137191 0.161296 -0.227149 76 153 0
0.129672 0.727341 0.206431 153 0 76
-0.347280 -0.322914 0.026054 127 0 127
0.354389 0.453673 0.080193 0 127 127
-0.027367 -0.839245 0.140230 153 0 76
-0.360684 -0.598808 0.175006 127 0 127
0.135039 0.484624 0.223195 153 0 76
0.079830 0.033529 0.223195 153 0 76
-0.347280 -0.565928 -0.171096 127 0 127
0.089891 -0.825528 0.046650 153 0 76
-0.085886 -0.341627 0.206431 76 153 0
0.021444 0.207384 0.222066 153 0 76
-0.347280 -0.413866 -0.116736 127 0 127
-0.109871 -0.839245 -0.203956 153 0 76
-0.347280 0.611856 -0.094489 127 0 127
0.003554 -0.056241 0.206923 153 0 76
-0.360684 0.151606 -0.058753 127 0 127
0.354389 0.301255 0.103557 0 127 127
-0.045591 -0.825528 0.011172 153 0 76
0.099840 -0.710254 -0.234007 76 153 0
0.191382 -0.888785 0.145640 127 127 0
-0.320435 -0.437523 0.206431 76 153 0
-0.290266 0.895684 0.206431 76 0 153
0.365720 0.832485 -0.234007 0 127 127
-0.239894 -0.497626 -0.234007 76 153 0
-0.028155 -0.825528 -0.123380 153 0 76
0.105908 0.906347 -0.026201 76 0 153
-0.130425 -0.163361 -0.227149 76 153 0
-0.347280 0.053959 0.003375 127 0 127
-0.312602 0.007255 0.206431 76 153 0
0.096328 0.261257 0.206431 153 0 76
0.189735 0.814397 0.223195 153 0 76
-0.360684 -0.030412 -0.168150 127 0 127
-0.284622 -0.808399 -0.227149 76 153 0
0.367792 0.131306 0.161923 0 127 127
-0.360684 0.781568 0.046538 127 0 127
0.367792 0.874415 0.187657 0 127 127
-0.124358 -0.624872 0.223195 76 153 0
-0.046472 0.284163 0.206431 76 153 0
0.085160 0.710088 0.206431 153 0 76
-0.300527 0.371366 0.223195 76 153 0
0.307233 -0.896967 0.145640 127 127 0
0.334085 -0.847017 0.049434 153 0 76
-0.074572 -0.294164 0.223195 76 153 0
0.045624 0.615579 0.223195 153 0 76
-0.360684 -0.543902 -0.142671 127 0 127
-0.168703 0.906347 0.022153 76 0 153
-0.360684 0.123098 -0.108454 127 0 127
0.271988 -0.239650 -0.227149 76 153 0
-0.347280 0.683530 -0.094772 127 0 127
0.047091 0.462554 -0.234007 76 153 0
0.157659 -0.825528 0.182394 153 0 76
-0.120287 0.906347 0.125153 76 0 153
0.053297 -0.740735 0.223195 153 0 76
-0.018553 0.491563 0.206431 76 153 0
-0.217237 -0.240945 0.223195 76 153 0
-0.360684 -0.001304 0.111243 127 0 127
-0.053896 -0.708794 0.223195 76 153 0
-0.360684 -0.271240 -0.103415 127 0 127
0.111237 -0.449268 -0.234007 76 153 0
0.022757 0.624038 0.206431 153 0 76
0.141035 0.772135 0.206431 153 0 76
0.367792 -0.118134 0.071488 0 127 127
-0.323760 0.906347 -0.122962 76 0 153
-0.051228 -0.839397 0.067855 153 0 76
0.367792 -0.319072 0.187978 0 127 127
-0.360684 -0.640110 0.190963 127 0 127
-0.356165 -0.225147 -0.234007 127 0 127
0.354389 0.462717 -0.196845 0 127 127
-0.301780 0.262038 -0.234007 76 153 0
0.295116 0.847139 0.206431 153 0 76
-0.347280 0.469835 -0.111773 127 0 127
-0.347280 0.083702 0.001465 127 0 127
-0.040201 -0.219835 0.223195 76 153 0
-0.347280 -0.689545 0.164627 127 0 127
0.354389 -0.262802 -0.098280 0 127 127
0.354389 -0.427971 0.125880 0 127 127
0.173031 0.906347 -0.182210 76 0 153
0.086454 -0.047607 -0.227149 76 153 0
-0.300405 0.134653 0.206431 76 153 0
0.251518 -0.505461 -0.234007 76 153 0
-0.277058 0.593247 0.223195 76 153 0
0.367792 -0.120893 -0.021339 0 127 127
-0.200754 0.906347 -0.034390 76 0 153
0.343521 0.221932 0.206431 153 0 76
-0.347280 0.358275 -0.012721 127 0 127
-0.268276 0.043541 -0.234007 76 153 0
0.043393 -0.054091 0.223195 153 0 76
-0.115603 -0.835083 -0.234007 153 0 76
-0.136708 -0.068522 0.223195 76 153 0
-0.360684 -0.150603 0.001817 127 0 127
-0.360684 0.581156 0.035536 127 0 127
0.301859 -0.825528 0.034306 153 0 76
-0.255608 0.207274 0.206431 76 153 0
-0.347280 -0.074594 -0.083204 127 0 127
-0.013298 0.026269 -0.234007 76 153 0
-0.276278 -0.085613 0.223195 76 153 0
-0.353972 -0.358389 -0.234007 76 153 0
-0.347280 -0.424727 -0.063934 127 0 127
-0.103840 -0.125215 0.206431 76 153 0
-0.360684 -0.168919 0.038197 127 0 127
0.185494 0.118087 -0.227149 76 153 0
0.099379 0.781846 -0.234007 76 153 0
0.354389 0.362736 0.112334 0 127 127
-0.347280 -0.750724 0.074547 127 0 127
0.332606 0.263552 -0.227149 76 153 0
0.354389 0.100462 0.037758 0 127 127
0.354389 0.014148 0.187678 0 127 127
0.367792 0.340885 -0.121842 0 127 127
-0.149332 -0.825528 0.042532 153 0 76
0.367792 0.614058 -0.098849 0 127 127
-0.208672 0.045292 -0.234007 76 153 0
-0.360684 -0.136022 -0.226766 76 153 0
-0.327813 -0.825528 -0.207425 153 0 76
0.303743 -0.334873 -0.227149 76 153 0
0.240831 -0.151864 0.223195 153 0 76
-0.283051 -0.700979 0.206431 76 153 0
0.367792 0.375749 -0.121299 0 127 127
0.367792 -0.201079 0.151901 0 127 127
-0.178795 -0.634363 0.223195 76 153 0
0.145215 0.822251 0.206431 153 0 76
-0.016963 -0.925708 -0.171481 204 51 127
0.367792 -0.650348 0.004697 0 127 127
0.367792 0.414282 -0.200740 0 127 127
0.169771 0.500620 -0.227149 76 153 0
0.354389 0.285676 -0.176123 0 127 127
-0.339212 0.875831 0.206431 76 153 0
0.054038 0.143667 0.206431 153 0 76
0.259709 -0.675792 -0.234007 76 153 0
-0.210007 -0.636954 0.223195 76 153 0
-0.172232 0.078452 0.206431 76 153 0
-0.347280 0.692787 -0.130784 127 0 127
0.354389 0.179222 0.187127 0 127 127
0.117150 -0.434736 0.206431 153 0 76
-0.084357 0.075498 0.206431 76 153 0
-0.347280 0.692904 0.148196 127 0 127
0.278342 -0.557790 -0.234007 76 153 0
-0.033723 0.906347 0.078121 76 0 153
0.367792 -0.465980 -0.225258 0 127 127
0.138810 0.260494 -0.234007 76 153 0
-0.156813 -0.114650 0.206431 76 153 0
0.039931 0.787426 -0.227149 76 153 0
-0.347280 0.884995 0.068253 127 0 127
0.182759 0.783568 0.223195 153 0 76
0.331236 0.366201 -0.227149 76 153 0
-0.144432 0.866613 0.206431 76 0 153
-0.284292 0.550028 0.223195 76 153 0
-0.347280 0.879580 -0.121842 127 0 127
0.099394 0.619369 -0.227149 76 153 0
0.083743 0.320408 -0.234007 76 153 0
0.010186 -0.499842 0.206431 153 0 76
-0.175673 -0.295019 -0.227149 76 153 0
0.135551 0.422561 -0.227149 76 153 0
0.272689 0.864453 0.168246 76 0 153
0.354389 -0.652836 0.069804 0 127 127
0.152704 -0.220781 -0.227149 76 153 0
0.053172 -0.461702 0.223195 153 0 76
-0.091887 0.906347 -0.119563 76 0 153
-0.122785 0.906347 0.084561 76 0 153
-0.331767 -0.839245 -0.099087 153 0 76
0.270125 -0.412279 -0.227149 76 153 0
0.263526 0.807469 0.223195 153 0 76
0.212935 -0.144737 0.223195 153 0 76
0.078054 0.894085 0.206431 153 0 76
-0.303512 0.864453 -0.206276 76 0 153
0.150032 0.335149 0.223195 153 0 76
0.324780 -0.424120 0.223195 153 0 76
-0.347280 0.405724 0.052806 127 0 127
-0.179548 -0.708618 -0.227149 76 153 0
0.188365 -0.015943 -0.234007 76 153 0
0.354389 -0.037518 0.089020 0 127 127
0.178362 0.864453 0.047127 76 0 153
0.367792 0.576830 -0.179152 0 127 127
0.367792 0.802165 0.147824 0 127 127
-0.360684 -0.802747 0.165007 127 0 127
-0.347280 0.289328 -0.034362 127 0 127
-0.358171 0.619432 0.223195 76 153 0
0.354389 -0.441786 -0.026724 0 127 127
-0.297219 -0.896527 0.062673 255 0 0
-0.360684 0.011712 0.167860 127 0 127
0.013391 0.864453 -0.150442 76 0 153
-0.083814 -0.669622 -0.227149 76 153 0
-0.014335 -0.487315 0.223159 76 153 0
-0.184617 0.574630 0.223195 76 153 0
-0.347280 -0.680459 -0.205597 127 0 127
0.354389 0.548957 -0.067390 0 127 127
0.230570 -0.035890 0.206431 153 0 76
0.252276 -0.839245 -0.063394 153 0 76
-0.360684 -0.121601 0.018530 127 0 127
0.340047 0.538503 0.223195 153 0 76
-0.281311 -0.825528 0.052643 153 0 76
0.061518 0.390880 -0.234007 76 153 0
0.354389 0.143234 -0.164659 0 127 127
0.367792 -0.490566 -0.117306 0 127 127
0.367792 0.396314 -0.098077 0 127 127
-0.028328 -0.363387 -0.234007 76 153 0
0.260994 0.906347 0.108740 76 0 153
0.354389 -0.077553 -0.204985 0 127 127
-0.341779 -0.839245 -0.028190 153 0 76
0.354389 -0.334894 -0.014646 0 127 127
0.021444 0.571348 0.222081 153 0 76
0.348082 0.102837 -0.227149 0 127 127
-0.360684 0.324957 0.095610 127 0 127
-0.211329 0.191195 0.206431 76 153 0
0.354389 0.240245 -0.118971 0 127 127
0.339914 -0.334460 0.206431 153 0 76
-0.105650 0.645316 0.223195 76 153 0
-0.310163 0.829501 0.206431 76 153 0
0.186811 0.906181 0.220568 153 0 76
-0.360684 -0.218879 0.100615 127 0 127
0.354389 0.244886 0.030619 0 127 127
-0.287494 -0.016576 0.206431 76 153 0
-0.305322 0.213633 -0.234007 76 153 0
0.367792 -0.538403 -0.100738 0 127 127
-0.122062 0.864453 0.010959 76 0 153
0.037727 0.005797 -0.234007 76 153 0
0.090371 -0.530424 0.206431 153 0 76
0.354389 0.201149 0.055603 0 127 127
0.367792 0.816366 -0.184524 0 127 127
-0.074156 -0.825528 0.112175 153 0 76
0.322258 0.108920 0.206431 153 0 76
0.320061 -0.839410 0.221871 153 0 76
0.293629 -0.135506 0.206431 153 0 76
-0.303670 -0.659162 0.206431 76 153 0
0.354389 0.670163 -0.118907 0 127 127
-0.360684 -0.415665 0.080913 127 0 127
0.078083 0.520647 -0.234007 76 153 0
0.367792 0.128344 -0.107946 0 127 127
-0.230715 0.562917 0.206431 76 153 0
0.367792 0.893095 -0.119227 0 127 127
0.354389 0.740583 -0.074442 0 127 127
0.021311 -0.657874 0.206431 153 0 76
0.354389 -0.476489 0.122526 0 127 127
-0.147744 -0.577294 0.206431 76 153 0
-0.202780 -0.673734 0.223195 76 153 0
-0.347280 0.298409 0.089680 127 0 127
0.195380 0.906347 0.149009 76 0 153
-0.360684 -0.729777 -0.006872 127 0 127
0.354389 0.101664 0.151883 0 127 127
-0.360684 -0.529247 -0.034011 127 0 127
-0.011684 -0.869159 -0.160880 204 51 127
-0.008233 0.906347 0.171715 76 0 153
-0.172458 -0.653062 -0.234007 76 153 0
-0.084221 -0.196733 -0.227149 76 153 0
