ply
format ascii 1.0
element vertex 617
property float x
property float y
property float z
property float nx
property float ny
property float nz
property uchar red
property uchar green
property uchar blue
property float opacity
end_header
-0.309285 0.523648 0.227771 0.000000 0.000000 -1.000000 255 255 255 1.000000
-0.465578 -0.846885 0.194489 0.000000 -1.000000 0.000000 255 255 255 1.000000
0.390824 -0.846885 -0.083644 -0.000000 1.000000 -0.000000 255 255 255 1.000000
-0.367820 -0.826453 0.196933 0.000000 -1.000000 0.000000 255 255 255 1.000000
-0.466822 -0.052588 0.154072 -1.000000 -0.000000 0.000000 254 196 128 1.000000
-0.260900 0.852062 0.045063 -0.000000 1.000000 -0.000000 255 255 255 1.000000
0.131538 0.068320 -0.029910 -0.000000 -1.000000 0.000000 255 255 255 1.000000
-0.421423 0.068224 -0.223019 0.000000 0.000000 1.000000 255 255 255 1.000000
-0.466822 -0.256654 -0.133793 1.000000 0.000000 0.000000 255 255 255 1.000000
0.079766 -0.322230 0.227771 0.000000 0.000000 -1.000000 255 255 255 1.000000
0.182145 0.068320 -0.146619 0.000000 1.000000 0.000000 255 255 255 1.000000
0.154576 -0.543094 0.089468 0.000000 1.000000 0.000000 255 255 255 1.000000
0.334630 0.794966 0.243095 0.000000 0.000000 1.000000 243 190 122 1.000000
0.105308 -0.127383 0.243095 0.000000 0.000000 -1.000000 253 199 130 1.000000
0.304186 -0.846885 -0.105815 -0.000000 1.000000 -0.000000 255 255 255 1.000000
0.344057 -0.221424 0.021169 -0.000000 -1.000000 0.000000 255 255 255 1.000000
0.498610 0.542610 -0.202425 -1.000000 -0.000000 0.000000 255 255 255 1.000000
0.089824 0.033880 0.227771 0.000000 0.000000 1.000000 251 196 128 1.000000
-0.451497 0.308471 0.176843 -1.000000 -0.000000 0.000000 255 255 255 1.000000
-0.412849 0.831629 0.140563 -0.000000 1.000000 -0.000000 255 255 255 1.000000
0.398111 -0.221424 0.058142 0.000000 1.000000 0.000000 255 255 255 1.000000
0.369942 0.702409 0.243095 0.000000 0.000000 -1.000000 254 198 130 1.000000
0.471355 0.831629 -0.009414 0.000000 -1.000000 0.000000 255 255 255 1.000000
0.513934 0.320397 -0.003266 1.000000 0.000000 0.000000 251 190 121 1.000000
-0.466822 0.846733 -0.094308 1.000000 0.000000 0.000000 255 255 255 1.000000
-0.045131 0.456998 0.032883 -0.000000 -1.000000 0.000000 255 255 255 1.000000
0.115082 0.831629 0.036749 0.000000 -1.000000 0.000000 255 255 255 1.000000
-0.255450 0.498493 0.243095 0.000000 0.000000 1.000000 237 182 113 1.000000
-0.466822 0.576584 -0.143867 -1.000000 -0.000000 0.000000 250 193 122 1.000000
0.421855 0.522189 0.227771 0.000000 0.000000 1.000000 246 191 120 1.000000
-0.053892 -0.596595 0.243095 0.000000 0.000000 1.000000 250 191 121 1.000000
-0.276793 0.747163 0.243095 0.000000 0.000000 -1.000000 250 200 129 1.000000
0.280182 -0.826453 -0.140826 0.000000 -1.000000 0.000000 255 255 255 1.000000
-0.401195 0.792987 -0.223019 0.000000 -0.000000 -1.000000 255 255 255 1.000000
-0.412523 -0.623337 0.227771 0.000000 0.000000 -1.000000 255 255 255 1.000000
-0.380647 -0.160379 0.243095 0.000000 0.000000 -1.000000 247 193 124 1.000000
0.482323 0.477431 -0.052854 0.000000 1.000000 0.000000 255 255 255 1.000000
-0.451497 0.357591 -0.051719 -1.000000 -0.000000 0.000000 255 255 255 1.000000
0.224178 0.456998 0.216622 0.000000 1.000000 0.000000 255 255 255 1.000000
0.513934 -0.782192 0.191244 -1.000000 -0.000000 0.000000 255 255 255 1.000000
-0.331558 -0.659500 -0.223019 0.000000 0.000000 1.000000 255 255 255 1.000000
-0.451497 0.681781 0.207849 1.000000 0.000000 0.000000 255 255 255 1.000000
0.220305 0.729467 -0.241076 0.000000 -1.000000 0.000000 255 255 255 1.000000
-0.030491 0.831629 -0.137955 0.000000 -1.000000 0.000000 255 255 255 1.000000
0.498610 -0.074895 0.027532 -1.000000 -0.000000 0.000000 255 255 255 1.000000
0.384139 -0.167626 0.227771 0.000000 0.000000 -1.000000 255 255 255 1.000000
-0.077229 0.456998 0.026198 0.000000 1.000000 0.000000 255 255 255 1.000000
-0.155058 0.456998 0.137137 0.000000 1.000000 0.000000 255 255 255 1.000000
0.128964 0.456998 -0.201316 -0.000000 -1.000000 0.000000 255 255 255 1.000000
-0.051996 0.068320 0.142816 0.000000 1.000000 0.000000 255 255 255 1.000000
-0.374269 0.456998 -0.161711 -0.000000 -1.000000 0.000000 255 255 255 1.000000
0.491849 0.088752 -0.167130 0.000000 1.000000 0.000000 255 255 255 1.000000
-0.016754 0.477431 -0.034672 -0.000000 -1.000000 0.000000 255 255 255 1.000000
0.498610 -0.817823 0.224850 -1.000000 -0.000000 0.000000 255 255 255 1.000000
-0.391087 -0.448852 -0.223019 0.000000 -0.000000 -1.000000 255 255 255 1.000000
0.175021 0.442269 -0.223019 0.000000 -0.000000 -1.000000 255 255 255 1.000000
0.498610 0.747274 -0.243238 -1.000000 -0.000000 0.000000 255 255 255 1.000000
-0.230435 0.088752 0.212576 0.000000 1.000000 0.000000 255 255 255 1.000000
0.333687 -0.241857 -0.191523 -0.000000 -1.000000 0.000000 255 255 255 1.000000
-0.466822 0.698620 -0.196292 -1.000000 -0.000000 0.000000 247 194 122 1.000000
-0.463757 0.443927 0.243095 0.000000 0.000000 -1.000000 251 191 116 1.000000
-0.466822 -0.820411 0.131920 1.000000 0.000000 0.000000 255 255 255 1.000000
0.513934 0.370024 -0.010310 -1.000000 -0.000000 0.000000 255 255 255 1.000000
0.141143 0.852062 0.189796 0.000000 -1.000000 0.000000 255 255 255 1.000000
0.274615 0.273536 -0.228127 0.000000 -0.000000 -1.000000 255 255 255 1.000000
-0.111760 0.068320 0.131702 0.000000 1.000000 0.000000 255 255 255 1.000000
-0.291945 0.852062 -0.010027 -0.000000 1.000000 -0.000000 255 255 255 1.000000
0.438590 -0.657485 0.243095 0.000000 0.000000 -1.000000 247 190 122 1.000000
-0.109297 -0.221424 -0.038409 0.000000 1.000000 0.000000 255 255 255 1.000000
-0.313485 -0.226111 -0.223019 -0.000000 0.000000 -1.000000 255 255 255 1.000000
-0.026923 0.728762 -0.223019 0.000000 -0.000000 -1.000000 255 255 255 1.000000
0.330064 0.741256 0.243095 0.000000 0.000000 1.000000 251 198 130 1.000000
-0.143179 -0.826453 0.221394 0.000000 -1.000000 0.000000 255 255 255 1.000000
-0.146928 -0.562710 0.243095 0.000000 0.000000 -1.000000 255 195 126 1.000000
-0.175949 0.004193 0.227771 0.000000 0.000000 -1.000000 255 255 255 1.000000
-0.021771 -0.543094 -0.053591 0.000000 1.000000 0.000000 255 255 255 1.000000
-0.451497 0.658192 -0.072282 -1.000000 -0.000000 0.000000 255 255 255 1.000000
-0.346364 0.846397 0.243095 0.000000 0.000000 1.000000 251 194 126 1.000000
-0.451497 0.115635 0.154508 1.000000 0.000000 0.000000 255 255 255 1.000000
0.498610 -0.536331 -0.147484 1.000000 0.000000 0.000000 255 255 255 1.000000
0.442524 -0.241857 0.184611 0.000000 1.000000 0.000000 255 255 255 1.000000
-0.113176 0.549349 0.243095 0.000000 0.000000 -1.000000 250 194 125 1.000000
0.421540 -0.846885 -0.106365 0.000000 -1.000000 0.000000 255 255 255 1.000000
-0.103489 -0.221424 0.117289 0.000000 1.000000 0.000000 255 255 255 1.000000
-0.010385 0.456998 0.017948 0.000000 1.000000 0.000000 255 255 255 1.000000
-0.007312 0.456998 -0.063908 0.000000 1.000000 0.000000 255 255 255 1.000000
-0.104380 -0.826453 -0.218341 -0.000000 1.000000 -0.000000 255 255 255 1.000000
0.513934 0.464054 0.204998 1.000000 0.000000 0.000000 248 195 127 1.000000
-0.427206 0.088752 0.132380 0.000000 1.000000 0.000000 255 255 255 1.000000
0.000711 0.005148 0.243095 0.000000 0.000000 1.000000 248 193 124 1.000000
0.210909 0.233160 -0.223019 0.000000 -0.000000 -1.000000 255 255 255 1.000000
-0.173265 0.068320 -0.212702 -0.000000 -1.000000 0.000000 255 255 255 1.000000
-0.237691 -0.234700 -0.228127 0.000000 0.000000 1.000000 255 255 255 1.000000
0.489979 0.105688 0.227771 0.000000 0.000000 1.000000 251 196 128 1.000000
0.345914 -0.126669 0.227771 0.000000 0.000000 1.000000 252 193 126 1.000000
0.392963 0.456998 0.190568 0.000000 1.000000 0.000000 255 255 255 1.000000
0.491949 -0.286321 -0.228127 0.000000 0.000000 1.000000 255 255 255 1.000000
-0.451497 0.400819 0.103662 1.000000 0.000000 0.000000 255 255 255 1.000000
0.440447 -0.543094 -0.214501 0.000000 1.000000 0.000000 255 255 255 1.000000
-0.277178 0.088752 0.111831 0.000000 1.000000 0.000000 255 255 255 1.000000
0.498610 -0.445385 -0.090526 1.000000 0.000000 0.000000 255 255 255 1.000000
-0.388317 -0.105461 0.227771 0.000000 0.000000 -1.000000 255 255 255 1.000000
0.498610 0.094437 -0.208051 1.000000 0.000000 0.000000 255 255 255 1.000000
-0.369938 0.818225 -0.243451 0.000000 -0.000000 -1.000000 255 255 255 1.000000
-0.466822 0.236402 -0.162961 1.000000 0.000000 0.000000 255 255 255 1.000000
0.513934 0.699640 0.141609 1.000000 0.000000 0.000000 251 198 130 1.000000
-0.451497 0.485461 0.018953 1.000000 0.000000 0.000000 255 255 255 1.000000
0.143341 0.827088 0.227771 0.000000 0.000000 1.000000 249 190 118 1.000000
-0.397624 -0.009328 0.227771 0.000000 0.000000 1.000000 254 201 133 1.000000
-0.276657 -0.800855 -0.228127 0.000000 0.000000 1.000000 255 255 255 1.000000
-0.003629 -0.846885 0.035204 -0.000000 1.000000 -0.000000 255 255 255 1.000000
0.409314 -0.221424 0.195658 -0.000000 -1.000000 0.000000 255 255 255 1.000000
-0.046270 -0.846885 0.217176 -0.000000 1.000000 -0.000000 255 255 255 1.000000
-0.205193 0.090887 0.243095 0.000000 0.000000 1.000000 246 191 122 1.000000
-0.181651 -0.054964 0.243095 0.000000 0.000000 -1.000000 252 194 126 1.000000
-0.451497 0.115596 -0.034898 -1.000000 -0.000000 0.000000 255 255 255 1.000000
0.498610 -0.353044 0.001816 1.000000 0.000000 0.000000 255 255 255 1.000000
-0.084306 -0.543094 0.045631 0.000000 1.000000 0.000000 255 255 255 1.000000
0.033987 -0.543094 0.153019 -0.000000 -1.000000 0.000000 255 255 255 1.000000
-0.162682 0.852062 -0.091788 -0.000000 1.000000 -0.000000 255 255 255 1.000000
0.300525 0.852062 0.156299 0.000000 -1.000000 0.000000 255 255 255 1.000000
0.315087 -0.597365 0.227771 0.000000 0.000000 -1.000000 255 255 255 1.000000
0.249295 -0.414595 -0.223019 0.000000 0.000000 1.000000 255 255 255 1.000000
0.310031 0.068320 0.214450 0.000000 1.000000 0.000000 255 255 255 1.000000
0.513934 0.446914 -0.130965 -1.000000 -0.000000 0.000000 255 255 255 1.000000
0.176929 0.011844 -0.243451 0.000000 0.000000 1.000000 255 255 255 1.000000
0.498610 0.060398 -0.065549 -1.000000 -0.000000 0.000000 255 255 255 1.000000
-0.194614 0.831629 -0.217858 -0.000000 1.000000 -0.000000 255 255 255 1.000000
0.151903 0.412305 0.227771 0.000000 0.000000 1.000000 251 195 124 1.000000
-0.311500 -0.426297 -0.228127 0.000000 -0.000000 -1.000000 255 255 255 1.000000
0.436235 -0.423024 -0.228127 0.000000 -0.000000 -1.000000 255 255 255 1.000000
0.280678 0.562901 0.227771 0.000000 0.000000 1.000000 243 188 117 1.000000
-0.145951 0.456998 -0.030320 -0.000000 -1.000000 0.000000 255 255 255 1.000000
0.061911 -0.221424 0.071564 -0.000000 -1.000000 0.000000 255 255 255 1.000000
0.413177 -0.399386 0.227771 0.000000 0.000000 -1.000000 255 255 255 1.000000
0.495931 -0.476987 -0.228127 0.000000 -0.000000 -1.000000 255 255 255 1.000000
0.498610 0.785145 0.023924 1.000000 0.000000 0.000000 255 255 255 1.000000
0.498610 0.414226 0.057217 1.000000 0.000000 0.000000 255 255 255 1.000000
0.401621 0.033958 -0.223019 0.000000 0.000000 1.000000 255 255 255 1.000000
0.236205 0.387491 -0.228127 0.000000 -0.000000 -1.000000 255 255 255 1.000000
0.513934 0.349733 0.030146 1.000000 0.000000 0.000000 250 190 124 1.000000
-0.466822 0.355393 0.046537 1.000000 0.000000 0.000000 255 255 255 1.000000
-0.416702 -0.812335 0.227771 0.000000 0.000000 -1.000000 255 255 255 1.000000
-0.237840 -0.543094 -0.121929 -0.000000 -1.000000 0.000000 255 255 255 1.000000
-0.168460 -0.376478 0.243095 0.000000 0.000000 1.000000 247 192 121 1.000000
0.397529 -0.761109 0.243095 0.000000 0.000000 -1.000000 249 191 123 1.000000
0.513934 0.655142 0.155627 -1.000000 -0.000000 0.000000 255 255 255 1.000000
-0.212145 -0.311957 0.227771 0.000000 0.000000 1.000000 253 198 128 1.000000
-0.415505 -0.543094 0.119108 -0.000000 -1.000000 0.000000 255 255 255 1.000000
-0.451497 -0.845258 -0.045879 -1.000000 -0.000000 0.000000 255 255 255 1.000000
0.498610 0.480361 -0.182476 -1.000000 -0.000000 0.000000 255 255 255 1.000000
0.513934 0.795763 0.208279 -1.000000 -0.000000 0.000000 255 255 255 1.000000
-0.015156 0.020843 -0.243451 0.000000 -0.000000 -1.000000 255 255 255 1.000000
-0.064575 0.363870 0.243095 0.000000 0.000000 -1.000000 249 193 122 1.000000
0.270475 0.831629 0.089108 0.000000 -1.000000 0.000000 255 255 255 1.000000
0.270016 -0.502729 -0.228127 0.000000 -0.000000 -1.000000 255 255 255 1.000000
-0.451497 0.389920 0.221840 -1.000000 -0.000000 0.000000 255 255 255 1.000000
0.278221 -0.241857 0.190399 0.000000 1.000000 0.000000 255 255 255 1.000000
-0.003382 0.846834 0.243095 0.000000 0.000000 -1.000000 249 194 125 1.000000
-0.466822 -0.817496 0.217037 -1.000000 -0.000000 0.000000 248 191 123 1.000000
-0.189152 -0.548747 -0.228127 0.000000 0.000000 1.000000 255 255 255 1.000000
0.086524 0.499769 0.227771 0.000000 0.000000 -1.000000 255 255 255 1.000000
-0.466822 -0.417484 0.214563 -1.000000 -0.000000 0.000000 243 188 119 1.000000
-0.427771 0.831629 0.174299 -0.000000 1.000000 -0.000000 255 255 255 1.000000
0.273650 0.615137 0.227771 0.000000 0.000000 -1.000000 255 255 255 1.000000
-0.220808 -0.689372 -0.228127 0.000000 0.000000 1.000000 255 255 255 1.000000
-0.234850 -0.432461 0.227771 0.000000 0.000000 1.000000 251 191 119 1.000000
0.146816 -0.274057 0.243095 0.000000 0.000000 1.000000 250 193 126 1.000000
0.106871 0.831629 0.126117 -0.000000 1.000000 -0.000000 255 255 255 1.000000
0.504416 0.018666 0.243095 0.000000 0.000000 -1.000000 248 191 123 1.000000
-0.179974 0.456998 0.061696 -0.000000 -1.000000 0.000000 255 255 255 1.000000
-0.038873 0.831629 -0.101942 0.000000 -1.000000 0.000000 255 255 255 1.000000
0.378976 -0.337834 0.243095 0.000000 0.000000 1.000000 248 193 124 1.000000
-0.020625 0.088752 0.102511 -0.000000 -1.000000 0.000000 255 255 255 1.000000
0.024002 -0.826453 -0.205384 -0.000000 1.000000 -0.000000 255 255 255 1.000000
0.498610 -0.820371 0.035928 1.000000 0.000000 0.000000 255 255 255 1.000000
-0.218732 0.088752 -0.125672 0.000000 1.000000 0.000000 255 255 255 1.000000
-0.283303 -0.109516 -0.228127 0.000000 0.000000 1.000000 255 255 255 1.000000
0.020976 0.088752 -0.089051 0.000000 1.000000 0.000000 255 255 255 1.000000
-0.448490 -0.550960 -0.223019 0.000000 -0.000000 -1.000000 255 255 255 1.000000
-0.085055 0.456998 0.080659 0.000000 1.000000 0.000000 255 255 255 1.000000
0.454079 -0.755427 -0.243451 0.000000 0.000000 1.000000 255 255 255 1.000000
0.007860 -0.457338 0.243095 0.000000 0.000000 1.000000 246 189 122 1.000000
0.491276 -0.221424 0.042032 -0.000000 -1.000000 0.000000 255 255 255 1.000000
-0.403203 0.852062 -0.055553 -0.000000 1.000000 -0.000000 255 255 255 1.000000
0.498610 -0.412083 -0.205023 -1.000000 -0.000000 0.000000 255 255 255 1.000000
0.042984 -0.543094 -0.013596 -0.000000 -1.000000 0.000000 255 255 255 1.000000
-0.230943 0.293446 0.243095 0.000000 0.000000 -1.000000 254 197 126 1.000000
0.400205 -0.466248 -0.228127 0.000000 -0.000000 -1.000000 255 255 255 1.000000
0.513934 -0.185118 -0.055144 1.000000 0.000000 0.000000 250 195 124 1.000000
-0.442916 0.361666 -0.223019 0.000000 0.000000 1.000000 255 255 255 1.000000
0.431904 -0.241857 -0.030882 -0.000000 -1.000000 0.000000 255 255 255 1.000000
0.234324 -0.653466 -0.228127 0.000000 -0.000000 -1.000000 255 255 255 1.000000
-0.239830 0.456998 0.193829 0.000000 1.000000 0.000000 255 255 255 1.000000
-0.193744 0.370264 -0.228127 0.000000 0.000000 1.000000 255 255 255 1.000000
-0.247582 -0.846885 -0.228390 -0.000000 1.000000 -0.000000 255 255 255 1.000000
0.067090 0.456998 0.010548 -0.000000 -1.000000 0.000000 255 255 255 1.000000
0.513934 0.769377 0.164704 -1.000000 -0.000000 0.000000 255 255 255 1.000000
0.168207 -0.846885 -0.132520 0.000000 -1.000000 0.000000 255 255 255 1.000000
-0.384103 0.088752 0.092167 -0.000000 -1.000000 0.000000 255 255 255 1.000000
0.395362 0.068320 0.148787 -0.000000 -1.000000 0.000000 255 255 255 1.000000
0.486403 -0.826453 -0.027629 0.000000 -1.000000 0.000000 255 255 255 1.000000
0.328168 0.459352 -0.228127 0.000000 0.000000 1.000000 255 255 255 1.000000
0.443817 0.852062 -0.148794 0.000000 -1.000000 0.000000 255 255 255 1.000000
-0.103726 -0.162092 -0.223019 0.000000 0.000000 1.000000 255 255 255 1.000000
0.497132 0.456998 -0.006246 -0.000000 -1.000000 0.000000 255 255 255 1.000000
0.221629 0.852062 0.152325 -0.000000 1.000000 -0.000000 255 255 255 1.000000
0.387029 0.088752 0.170237 0.000000 1.000000 0.000000 255 255 255 1.000000
-0.451497 -0.322560 0.100734 1.000000 0.000000 0.000000 255 255 255 1.000000
-0.431615 -0.303046 -0.223019 0.000000 -0.000000 -1.000000 255 255 255 1.000000
-0.332933 -0.776426 -0.243451 0.000000 0.000000 1.000000 255 255 255 1.000000
0.498610 -0.460155 0.202733 -1.000000 -0.000000 0.000000 255 255 255 1.000000
-0.212153 -0.710942 0.243095 0.000000 0.000000 1.000000 250 197 128 1.000000
-0.019866 -0.846885 -0.166068 -0.000000 1.000000 -0.000000 255 255 255 1.000000
-0.466822 0.697899 0.017749 -1.000000 -0.000000 0.000000 248 195 127 1.000000
-0.117510 -0.241857 0.023479 0.000000 1.000000 0.000000 255 255 255 1.000000
0.094431 0.035031 -0.228127 0.000000 -0.000000 -1.000000 255 255 255 1.000000
0.299780 0.068320 0.040056 -0.000000 -1.000000 0.000000 255 255 255 1.000000
0.513934 0.233845 -0.129136 -1.000000 -0.000000 0.000000 255 255 255 1.000000
-0.264922 -0.522661 0.101125 -0.000000 -1.000000 0.000000 255 255 255 1.000000
-0.424540 -0.221424 -0.144121 0.000000 1.000000 0.000000 255 255 255 1.000000
0.064318 0.021194 0.227771 0.000000 0.000000 -1.000000 255 255 255 1.000000
0.462856 0.088752 -0.065957 0.000000 1.000000 0.000000 255 255 255 1.000000
0.134355 0.607184 0.243095 0.000000 0.000000 -1.000000 246 194 124 1.000000
0.326268 0.472924 0.243095 0.000000 0.000000 -1.000000 250 195 127 1.000000
0.066074 -0.221424 -0.089081 0.000000 1.000000 0.000000 255 255 255 1.000000
0.330387 0.456998 -0.138667 0.000000 1.000000 0.000000 255 255 255 1.000000
0.048599 0.433834 0.243095 0.000000 0.000000 1.000000 250 195 124 1.000000
0.498610 -0.358337 -0.222964 1.000000 0.000000 0.000000 255 255 255 1.000000
0.498610 0.036888 0.020605 1.000000 0.000000 0.000000 255 255 255 1.000000
-0.189306 -0.241857 0.086191 0.000000 1.000000 0.000000 255 255 255 1.000000
0.342101 0.068320 0.142699 0.000000 1.000000 0.000000 255 255 255 1.000000
-0.140079 -0.543094 0.017338 0.000000 1.000000 0.000000 255 255 255 1.000000
0.375189 0.220403 0.227771 0.000000 0.000000 1.000000 248 193 124 1.000000
-0.437273 -0.143355 0.227771 0.000000 0.000000 1.000000 249 193 122 1.000000
-0.078697 -0.221424 -0.090421 0.000000 1.000000 0.000000 255 255 255 1.000000
0.113445 0.014038 0.243095 0.000000 0.000000 -1.000000 247 194 125 1.000000
-0.415250 0.852062 0.021330 0.000000 -1.000000 0.000000 255 255 255 1.000000
0.513934 -0.127714 -0.188329 1.000000 0.000000 0.000000 254 200 129 1.000000
-0.159080 -0.543094 0.092693 -0.000000 -1.000000 0.000000 255 255 255 1.000000
0.103169 0.852062 0.187014 0.000000 -1.000000 0.000000 255 255 255 1.000000
-0.466822 -0.086251 0.205050 1.000000 0.000000 0.000000 255 255 255 1.000000
0.513934 -0.515486 0.212051 1.000000 0.000000 0.000000 249 191 120 1.000000
0.293929 -0.221424 0.172426 0.000000 1.000000 0.000000 255 255 255 1.000000
0.495639 -0.155497 0.243095 0.000000 0.000000 1.000000 252 196 129 1.000000
0.439622 0.599286 0.227771 0.000000 0.000000 -1.000000 255 255 255 1.000000
-0.466822 -0.324809 -0.044541 -1.000000 -0.000000 0.000000 255 195 127 1.000000
-0.451497 -0.058502 -0.020766 1.000000 0.000000 0.000000 255 255 255 1.000000
0.425953 0.425670 0.227771 0.000000 0.000000 1.000000 250 198 124 1.000000
0.498610 -0.664301 0.026946 -1.000000 -0.000000 0.000000 255 255 255 1.000000
-0.126345 0.105267 -0.223019 0.000000 0.000000 1.000000 255 255 255 1.000000
-0.130744 0.088752 -0.045717 0.000000 1.000000 0.000000 255 255 255 1.000000
-0.106016 0.268032 0.243095 0.000000 0.000000 -1.000000 251 196 128 1.000000
-0.451497 -0.583734 0.050008 -1.000000 -0.000000 0.000000 255 255 255 1.000000
-0.451497 0.173434 -0.242791 1.000000 0.000000 0.000000 255 255 255 1.000000
-0.466822 0.635419 -0.213346 -1.000000 -0.000000 0.000000 248 193 122 1.000000
0.248988 0.831629 -0.098886 0.000000 -1.000000 0.000000 255 255 255 1.000000
-0.346774 0.068320 0.216390 -0.000000 -1.000000 0.000000 255 255 255 1.000000
-0.292616 0.249235 -0.228127 0.000000 -0.000000 -1.000000 255 255 255 1.000000
0.166661 -0.543094 -0.048402 0.000000 1.000000 0.000000 255 255 255 1.000000
-0.466822 0.158626 -0.162695 -1.000000 -0.000000 0.000000 243 191 121 1.000000
0.236282 0.456998 0.060859 0.000000 1.000000 0.000000 255 255 255 1.000000
-0.114876 0.634470 -0.223019 0.000000 0.000000 1.000000 255 255 255 1.000000
0.457834 -0.493609 -0.228127 0.000000 -0.000000 -1.000000 255 255 255 1.000000
-0.291315 -0.608453 -0.228127 0.000000 -0.000000 -1.000000 255 255 255 1.000000
-0.119984 -0.291313 0.227771 0.000000 0.000000 -1.000000 255 255 255 1.000000
0.286751 0.088752 0.054296 0.000000 1.000000 0.000000 255 255 255 1.000000
-0.097170 -0.522661 0.065190 0.000000 1.000000 0.000000 255 255 255 1.000000
-0.218636 0.734755 -0.223019 0.000000 -0.000000 -1.000000 255 255 255 1.000000
0.374204 -0.543094 -0.213061 -0.000000 -1.000000 0.000000 255 255 255 1.000000
0.323650 0.500796 -0.228127 0.000000 0.000000 1.000000 255 255 255 1.000000
0.121402 0.477431 0.126633 -0.000000 -1.000000 0.000000 255 255 255 1.000000
0.221625 -0.555765 0.243095 0.000000 0.000000 1.000000 246 188 112 1.000000
-0.451497 0.146589 0.144065 1.000000 0.000000 0.000000 255 255 255 1.000000
0.498610 0.258438 0.116625 1.000000 0.000000 0.000000 255 255 255 1.000000
-0.466822 -0.820790 -0.218913 -1.000000 -0.000000 0.000000 249 194 126 1.000000
-0.296075 0.048928 0.243095 0.000000 0.000000 -1.000000 252 197 128 1.000000
0.221254 0.068320 -0.069428 0.000000 1.000000 0.000000 255 255 255 1.000000
0.461209 0.456998 0.159462 0.000000 1.000000 0.000000 255 255 255 1.000000
0.136337 0.477431 -0.030749 -0.000000 -1.000000 0.000000 255 255 255 1.000000
-0.076410 -0.846885 -0.027777 0.000000 -1.000000 0.000000 255 255 255 1.000000
-0.466822 -0.454457 0.168692 1.000000 0.000000 0.000000 255 255 255 1.000000
-0.020045 -0.221424 0.202333 -0.000000 -1.000000 0.000000 255 255 255 1.000000
-0.451497 0.663552 0.092609 -1.000000 -0.000000 0.000000 255 255 255 1.000000
0.513934 0.375811 0.106830 -1.000000 -0.000000 0.000000 255 255 255 1.000000
-0.225104 -0.846885 0.094361 -0.000000 1.000000 -0.000000 255 255 255 1.000000
-0.087264 -0.241857 -0.004202 -0.000000 -1.000000 0.000000 255 255 255 1.000000
0.478495 0.068320 0.175305 0.000000 1.000000 0.000000 255 255 255 1.000000
0.498610 0.286294 0.070742 1.000000 0.000000 0.000000 255 255 255 1.000000
-0.374874 0.586224 0.227771 0.000000 0.000000 1.000000 251 198 128 1.000000
-0.438873 -0.826453 -0.062934 0.000000 -1.000000 0.000000 255 255 255 1.000000
-0.407417 0.852062 -0.018344 -0.000000 1.000000 -0.000000 255 255 255 1.000000
0.172094 -0.842701 0.243095 0.000000 0.000000 -1.000000 244 191 123 1.000000
0.512657 -0.130227 0.239381 -1.000000 0.000000 0.000000 250 195 126 1.000000
0.299111 -0.487108 -0.228127 0.000000 0.000000 1.000000 255 255 255 1.000000
0.447444 -0.840547 -0.243451 0.000000 -0.000000 -1.000000 255 255 255 1.000000
-0.223697 -0.098781 0.243095 0.000000 0.000000 1.000000 250 195 126 1.000000
-0.151037 -0.595294 0.243095 0.000000 0.000000 -1.000000 253 197 126 1.000000
0.315986 0.477431 -0.198958 0.000000 1.000000 0.000000 255 255 255 1.000000
-0.109280 -0.522661 -0.030557 0.000000 1.000000 0.000000 255 255 255 1.000000
-0.197171 0.152413 0.227771 0.000000 0.000000 1.000000 252 196 129 1.000000
0.513934 0.214692 -0.070036 1.000000 0.000000 0.000000 247 192 123 1.000000
-0.311599 0.088752 0.102337 0.000000 1.000000 0.000000 255 255 255 1.000000
-0.054343 0.042385 -0.223019 0.000000 0.000000 1.000000 255 255 255 1.000000
0.095403 -0.522661 0.089195 0.000000 1.000000 0.000000 255 255 255 1.000000
-0.150837 0.556122 0.227771 0.000000 0.000000 -1.000000 255 255 255 1.000000
0.263022 -0.558588 -0.223019 0.000000 -0.000000 -1.000000 255 255 255 1.000000
-0.151005 0.456998 0.017685 -0.000000 -1.000000 0.000000 255 255 255 1.000000
0.044500 -0.543094 0.071280 0.000000 1.000000 0.000000 255 255 255 1.000000
-0.270195 0.852062 0.112588 0.000000 -1.000000 0.000000 255 255 255 1.000000
0.345212 0.831629 0.063743 0.000000 -1.000000 0.000000 255 255 255 1.000000
-0.256241 -0.846885 0.022411 -0.000000 1.000000 -0.000000 255 255 255 1.000000
0.366560 -0.235721 -0.228127 0.000000 -0.000000 -1.000000 255 255 255 1.000000
0.513934 -0.188413 0.153914 1.000000 0.000000 0.000000 250 195 126 1.000000
0.467107 0.088752 -0.026576 -0.000000 -1.000000 0.000000 255 255 255 1.000000
0.023276 -0.543094 0.100283 -0.000000 -1.000000 0.000000 255 255 255 1.000000
-0.171802 -0.712070 0.243095 0.000000 0.000000 1.000000 253 193 120 1.000000
0.382980 -0.826453 -0.213173 -0.000000 1.000000 -0.000000 255 255 255 1.000000
-0.159709 -0.768606 0.227771 0.000000 0.000000 1.000000 248 195 127 1.000000
-0.379501 0.852062 -0.014814 -0.000000 1.000000 -0.000000 255 255 255 1.000000
-0.236042 0.068320 -0.108350 0.000000 1.000000 0.000000 255 255 255 1.000000
0.498610 0.613316 -0.198652 -1.000000 -0.000000 0.000000 255 255 255 1.000000
0.170267 0.852062 -0.160198 -0.000000 1.000000 -0.000000 255 255 255 1.000000
0.498610 -0.295400 0.001129 -1.000000 -0.000000 0.000000 255 255 255 1.000000
0.359117 0.068320 0.095441 -0.000000 -1.000000 0.000000 255 255 255 1.000000
0.419087 -0.846885 0.094195 -0.000000 1.000000 -0.000000 255 255 255 1.000000
-0.466822 0.737531 0.223331 -1.000000 -0.000000 0.000000 236 181 109 1.000000
0.343332 0.477431 -0.183429 -0.000000 -1.000000 0.000000 255 255 255 1.000000
0.171118 0.852062 -0.190580 0.000000 -1.000000 0.000000 255 255 255 1.000000
0.045910 0.068320 -0.004561 0.000000 1.000000 0.000000 255 255 255 1.000000
0.480551 -0.297432 0.227771 0.000000 0.000000 1.000000 247 190 119 1.000000
0.164723 -0.221424 0.167313 -0.000000 -1.000000 0.000000 255 255 255 1.000000
-0.465545 0.098524 0.242937 1.000000 0.000000 0.000000 248 193 122 1.000000
-0.112119 -0.051481 -0.223019 0.000000 0.000000 1.000000 255 255 255 1.000000
-0.285049 -0.846885 0.011074 -0.000000 1.000000 -0.000000 255 255 255 1.000000
0.275984 0.529395 0.243095 0.000000 0.000000 1.000000 245 190 121 1.000000
0.057510 -0.630601 -0.228127 0.000000 -0.000000 -1.000000 255 255 255 1.000000
0.160131 0.094297 0.243095 0.000000 0.000000 -1.000000 249 193 125 1.000000
0.098136 0.831629 -0.027665 -0.000000 1.000000 -0.000000 255 255 255 1.000000
0.240631 -0.543094 0.174228 0.000000 1.000000 0.000000 255 255 255 1.000000
0.217743 -0.118171 -0.223019 0.000000 -0.000000 -1.000000 255 255 255 1.000000
-0.083173 -0.735077 0.227771 0.000000 0.000000 -1.000000 255 255 255 1.000000
0.294241 -0.490623 0.243095 0.000000 0.000000 1.000000 247 195 123 1.000000
-0.037062 0.443251 -0.223019 0.000000 0.000000 1.000000 255 255 255 1.000000
0.004478 0.674653 0.243095 0.000000 0.000000 1.000000 249 197 126 1.000000
0.088631 -0.826453 -0.217205 0.000000 -1.000000 0.000000 255 255 255 1.000000
-0.280688 -0.712225 0.243095 0.000000 0.000000 -1.000000 247 194 126 1.000000
0.020100 0.297443 -0.228127 0.000000 -0.000000 -1.000000 255 255 255 1.000000
-0.451497 0.239182 0.029029 1.000000 0.000000 0.000000 255 255 255 1.000000
-0.308336 0.456998 -0.027924 -0.000000 -1.000000 0.000000 255 255 255 1.000000
-0.169881 -0.543094 0.164013 -0.000000 -1.000000 0.000000 255 255 255 1.000000
-0.409754 -0.140973 0.227771 0.000000 0.000000 -1.000000 255 255 255 1.000000
-0.158120 0.784068 0.227771 0.000000 0.000000 1.000000 249 196 128 1.000000
-0.451497 -0.159901 0.113042 1.000000 0.000000 0.000000 255 255 255 1.000000
-0.466822 0.267749 0.059144 1.000000 0.000000 0.000000 255 255 255 1.000000
0.412427 -0.221424 -0.011710 -0.000000 -1.000000 0.000000 255 255 255 1.000000
0.257526 -0.729863 0.243095 0.000000 0.000000 1.000000 251 195 126 1.000000
-0.466822 -0.250998 0.015668 -1.000000 -0.000000 0.000000 251 195 124 1.000000
0.051220 -0.818668 0.227771 0.000000 0.000000 1.000000 253 198 128 1.000000
-0.303984 0.008378 0.227771 0.000000 0.000000 -1.000000 255 255 255 1.000000
-0.017978 -0.846885 -0.060922 -0.000000 1.000000 -0.000000 255 255 255 1.000000
-0.195037 0.088752 -0.168901 -0.000000 -1.000000 0.000000 255 255 255 1.000000
-0.346348 0.068320 0.129580 0.000000 1.000000 0.000000 255 255 255 1.000000
0.497119 0.209288 -0.228127 0.000000 0.000000 1.000000 255 255 255 1.000000
0.159744 -0.380523 -0.228127 0.000000 -0.000000 -1.000000 255 255 255 1.000000
0.513934 -0.082892 -0.121430 -1.000000 -0.000000 0.000000 255 255 255 1.000000
0.065051 0.369173 0.227771 0.000000 0.000000 -1.000000 255 255 255 1.000000
0.513934 -0.631216 0.070395 -1.000000 -0.000000 0.000000 255 255 255 1.000000
-0.014224 0.068320 -0.057179 0.000000 1.000000 0.000000 255 255 255 1.000000
-0.392115 0.331484 -0.228127 0.000000 -0.000000 -1.000000 255 255 255 1.000000
0.356247 0.068320 -0.074696 0.000000 1.000000 0.000000 255 255 255 1.000000
-0.268379 -0.800768 0.227771 0.000000 0.000000 1.000000 253 198 129 1.000000
-0.083048 0.088752 0.142991 0.000000 1.000000 0.000000 255 255 255 1.000000
-0.341121 0.427891 -0.223019 0.000000 0.000000 1.000000 255 255 255 1.000000
0.163390 0.547356 0.243095 0.000000 0.000000 -1.000000 253 204 132 1.000000
0.465961 0.085465 0.243095 0.000000 0.000000 -1.000000 248 191 122 1.000000
0.498610 -0.051930 -0.055092 -1.000000 -0.000000 0.000000 255 255 255 1.000000
-0.420174 -0.189999 0.227771 0.000000 0.000000 -1.000000 255 255 255 1.000000
-0.117609 -0.241857 -0.095338 0.000000 1.000000 0.000000 255 255 255 1.000000
0.124930 0.088752 -0.154999 0.000000 1.000000 0.000000 255 255 255 1.000000
-0.451497 -0.203413 -0.163328 1.000000 0.000000 0.000000 255 255 255 1.000000
-0.466822 -0.524883 0.002958 1.000000 0.000000 0.000000 255 255 255 1.000000
-0.144675 -0.826453 -0.194102 0.000000 -1.000000 0.000000 255 255 255 1.000000
-0.451497 0.513275 0.215033 1.000000 0.000000 0.000000 255 255 255 1.000000
0.064922 0.068320 -0.034705 0.000000 1.000000 0.000000 255 255 255 1.000000
0.513934 -0.797121 -0.145006 -1.000000 -0.000000 0.000000 255 255 255 1.000000
-0.099592 0.477431 -0.021891 -0.000000 -1.000000 0.000000 255 255 255 1.000000
-0.026117 -0.543094 -0.183508 0.000000 1.000000 0.000000 255 255 255 1.000000
0.088312 0.300104 0.243095 0.000000 0.000000 1.000000 251 194 126 1.000000
0.092898 -0.221424 -0.179079 -0.000000 -1.000000 0.000000 255 255 255 1.000000
-0.443794 0.358438 0.243095 0.000000 0.000000 1.000000 249 193 122 1.000000
0.417895 0.093497 -0.223019 0.000000 0.000000 1.000000 255 255 255 1.000000
0.498610 -0.198622 -0.189806 -1.000000 -0.000000 0.000000 255 255 255 1.000000
0.213336 -0.221424 0.125735 0.000000 1.000000 0.000000 255 255 255 1.000000
0.068425 -0.543094 0.166624 0.000000 1.000000 0.000000 255 255 255 1.000000
-0.466822 -0.755723 0.083888 -1.000000 -0.000000 0.000000 246 191 122 1.000000
0.498610 0.710604 -0.138942 1.000000 0.000000 0.000000 255 255 255 1.000000
0.513934 -0.823329 0.194292 1.000000 0.000000 0.000000 250 195 126 1.000000
-0.255054 -0.221424 0.035417 -0.000000 -1.000000 0.000000 255 255 255 1.000000
-0.192867 0.477431 -0.166963 0.000000 1.000000 0.000000 255 255 255 1.000000
0.513934 0.666052 -0.169238 -1.000000 -0.000000 0.000000 255 255 255 1.000000
-0.398759 0.852062 0.201567 -0.000000 1.000000 -0.000000 255 255 255 1.000000
0.513934 0.264956 0.186150 -1.000000 -0.000000 0.000000 255 255 255 1.000000
0.295589 0.161799 0.243095 0.000000 0.000000 1.000000 252 195 127 1.000000
0.443514 0.831629 -0.130479 0.000000 -1.000000 0.000000 255 255 255 1.000000
-0.466822 0.629648 0.043331 -1.000000 -0.000000 0.000000 246 194 124 1.000000
-0.176924 -0.824872 0.243095 0.000000 0.000000 1.000000 251 196 125 1.000000
0.415157 -0.543094 -0.115997 0.000000 1.000000 0.000000 255 255 255 1.000000
0.352935 -0.522661 -0.202598 0.000000 1.000000 0.000000 255 255 255 1.000000
-0.268997 -0.826453 -0.173862 -0.000000 1.000000 -0.000000 255 255 255 1.000000
0.221133 -0.544576 -0.228127 0.000000 0.000000 1.000000 255 255 255 1.000000
0.427478 0.852062 -0.095374 0.000000 -1.000000 0.000000 255 255 255 1.000000
-0.451497 0.299520 -0.199905 -1.000000 -0.000000 0.000000 255 255 255 1.000000
0.486171 -0.241734 0.243095 0.000000 0.000000 1.000000 248 204 131 1.000000
0.498610 0.249647 -0.177458 -1.000000 -0.000000 0.000000 255 255 255 1.000000
-0.104247 -0.669052 -0.228127 0.000000 -0.000000 -1.000000 255 255 255 1.000000
-0.297231 -0.522661 0.012683 0.000000 1.000000 0.000000 255 255 255 1.000000
0.285680 0.417958 0.243095 0.000000 0.000000 -1.000000 247 193 125 1.000000
0.014541 -0.846885 0.005683 -0.000000 1.000000 -0.000000 255 255 255 1.000000
0.091503 -0.553120 0.227771 0.000000 0.000000 -1.000000 255 255 255 1.000000
-0.338761 -0.221424 -0.170445 0.000000 1.000000 0.000000 255 255 255 1.000000
0.513934 -0.156986 -0.217040 1.000000 0.000000 0.000000 248 194 126 1.000000
0.491029 0.771878 0.243095 0.000000 0.000000 -1.000000 245 186 118 1.000000
0.509219 0.852062 -0.023201 0.000000 -1.000000 0.000000 255 255 255 1.000000
0.405700 -0.761887 -0.223019 0.000000 0.000000 1.000000 255 255 255 1.000000
0.031452 -0.826453 -0.039799 0.000000 -1.000000 0.000000 255 255 255 1.000000
-0.055820 -0.024789 -0.243451 0.000000 -0.000000 -1.000000 255 255 255 1.000000
0.246795 0.068320 -0.047380 -0.000000 -1.000000 0.000000 255 255 255 1.000000
-0.106101 0.754781 -0.243451 0.000000 -0.000000 -1.000000 255 255 255 1.000000
-0.152071 0.831629 0.209206 0.000000 -1.000000 0.000000 255 255 255 1.000000
-0.451497 0.823214 -0.097155 -1.000000 -0.000000 0.000000 255 255 255 1.000000
-0.383758 -0.543094 -0.066409 -0.000000 -1.000000 0.000000 255 255 255 1.000000
0.455627 0.477431 0.130344 0.000000 1.000000 0.000000 255 255 255 1.000000
-0.390743 -0.755883 -0.223019 0.000000 -0.000000 -1.000000 255 255 255 1.000000
-0.274259 0.477431 -0.112455 0.000000 1.000000 0.000000 255 255 255 1.000000
0.484913 0.852062 0.187576 0.000000 -1.000000 0.000000 255 255 255 1.000000
-0.141073 -0.413819 -0.228127 0.000000 -0.000000 -1.000000 255 255 255 1.000000
-0.466822 0.672976 -0.150218 1.000000 0.000000 0.000000 255 255 255 1.000000
0.078249 0.172045 0.243095 0.000000 0.000000 -1.000000 252 197 128 1.000000
0.344807 -0.767094 0.227771 0.000000 0.000000 -1.000000 255 255 255 1.000000
-0.370915 0.758922 -0.223019 0.000000 -0.000000 -1.000000 255 255 255 1.000000
0.399644 -0.826453 -0.153631 -0.000000 1.000000 -0.000000 255 255 255 1.000000
-0.466822 -0.845785 0.014038 -1.000000 -0.000000 0.000000 247 194 126 1.000000
0.282630 0.816392 0.243095 0.000000 0.000000 -1.000000 248 195 123 1.000000
0.513934 -0.707039 0.055615 -1.000000 -0.000000 0.000000 255 255 255 1.000000
-0.267176 0.477431 -0.058792 0.000000 1.000000 0.000000 255 255 255 1.000000
-0.279020 -0.047017 0.243095 0.000000 0.000000 -1.000000 246 195 126 1.000000
-0.035089 -0.522661 0.109572 -0.000000 -1.000000 0.000000 255 255 255 1.000000
0.157228 -0.192397 0.243095 0.000000 0.000000 -1.000000 250 195 127 1.000000
-0.282800 -0.846885 -0.238024 0.000000 -1.000000 0.000000 255 255 255 1.000000
-0.425034 0.452534 0.227771 0.000000 0.000000 1.000000 248 193 122 1.000000
0.100172 -0.477947 -0.223019 0.000000 0.000000 1.000000 255 255 255 1.000000
-0.299634 0.554653 -0.223019 0.000000 -0.000000 -1.000000 255 255 255 1.000000
-0.348520 -0.736779 -0.243451 0.000000 -0.000000 -1.000000 255 255 255 1.000000
-0.019085 0.149688 -0.223019 0.000000 0.000000 1.000000 255 255 255 1.000000
0.077483 0.219218 0.243095 0.000000 0.000000 1.000000 253 196 128 1.000000
0.442902 -0.378374 -0.223019 0.000000 -0.000000 -1.000000 255 255 255 1.000000
-0.442381 -0.826453 0.153508 0.000000 -1.000000 0.000000 255 255 255 1.000000
-0.341000 -0.149238 -0.223019 0.000000 -0.000000 -1.000000 255 255 255 1.000000
0.308763 -0.522661 0.103498 -0.000000 -1.000000 0.000000 255 255 255 1.000000
-0.180062 -0.596804 -0.223019 0.000000 -0.000000 -1.000000 255 255 255 1.000000
0.498610 0.010164 0.046369 1.000000 0.000000 0.000000 255 255 255 1.000000
-0.218948 0.456998 -0.118884 -0.000000 -1.000000 0.000000 255 255 255 1.000000
-0.466822 -0.008445 0.198177 1.000000 0.000000 0.000000 255 255 255 1.000000
-0.451497 -0.415797 -0.154419 -1.000000 -0.000000 0.000000 255 255 255 1.000000
0.462046 0.785109 0.227771 0.000000 0.000000 -1.000000 255 255 255 1.000000
0.202615 -0.221424 -0.206029 -0.000000 -1.000000 0.000000 255 255 255 1.000000
0.513934 -0.640524 0.034711 1.000000 0.000000 0.000000 251 192 124 1.000000
-0.144718 -0.241857 0.200619 0.000000 1.000000 0.000000 255 255 255 1.000000
0.059222 -0.684728 -0.228127 0.000000 -0.000000 -1.000000 255 255 255 1.000000
0.032844 0.477431 -0.022864 0.000000 1.000000 0.000000 255 255 255 1.000000
0.488140 0.088752 -0.136913 -0.000000 -1.000000 0.000000 255 255 255 1.000000
-0.196776 -0.826453 0.186256 -0.000000 1.000000 -0.000000 255 255 255 1.000000
0.166161 -0.022697 0.243095 0.000000 0.000000 1.000000 248 196 126 1.000000
0.447595 0.229941 0.243095 0.000000 0.000000 1.000000 248 194 125 1.000000
-0.315423 -0.212916 0.243095 0.000000 0.000000 -1.000000 251 196 128 1.000000
0.513934 0.127653 0.017997 1.000000 0.000000 0.000000 250 195 126 1.000000
0.076869 -0.727824 -0.243451 0.000000 0.000000 1.000000 255 255 255 1.000000
-0.295678 -0.826453 0.044815 0.000000 -1.000000 0.000000 255 255 255 1.000000
-0.194100 0.852062 -0.095793 0.000000 -1.000000 0.000000 255 255 255 1.000000
-0.289654 0.234981 0.243095 0.000000 0.000000 -1.000000 253 192 123 1.000000
-0.294168 -0.522661 0.067138 -0.000000 -1.000000 0.000000 255 255 255 1.000000
0.395029 0.477431 0.108936 -0.000000 -1.000000 0.000000 255 255 255 1.000000
-0.294409 0.088752 -0.111311 -0.000000 -1.000000 0.000000 255 255 255 1.000000
0.198825 -0.817206 0.227771 0.000000 0.000000 1.000000 244 192 122 1.000000
-0.130725 -0.543094 -0.160716 0.000000 1.000000 0.000000 255 255 255 1.000000
0.234541 -0.543094 0.105288 -0.000000 -1.000000 0.000000 255 255 255 1.000000
-0.189705 -0.221424 0.202714 0.000000 1.000000 0.000000 255 255 255 1.000000
-0.451497 -0.619407 0.209590 -1.000000 -0.000000 0.000000 255 255 255 1.000000
0.171374 0.852062 0.016495 0.000000 -1.000000 0.000000 255 255 255 1.000000
0.513934 0.192877 0.178770 -1.000000 -0.000000 0.000000 255 255 255 1.000000
-0.174787 -0.543094 -0.075025 0.000000 1.000000 0.000000 255 255 255 1.000000
0.248473 -0.522661 0.132594 -0.000000 -1.000000 0.000000 255 255 255 1.000000
-0.466822 -0.583226 -0.217471 -1.000000 -0.000000 0.000000 252 195 127 1.000000
-0.161097 0.105367 -0.228127 0.000000 0.000000 1.000000 255 255 255 1.000000
-0.135380 -0.543094 0.051936 -0.000000 -1.000000 0.000000 255 255 255 1.000000
-0.451497 0.418035 -0.097672 1.000000 0.000000 0.000000 255 255 255 1.000000
-0.047109 -0.448719 0.227771 0.000000 0.000000 1.000000 245 189 118 1.000000
-0.383147 -0.522661 -0.191952 -0.000000 -1.000000 0.000000 255 255 255 1.000000
0.363667 0.406404 -0.228127 0.000000 -0.000000 -1.000000 255 255 255 1.000000
-0.453601 0.072719 0.243095 0.000000 0.000000 -1.000000 252 194 126 1.000000
-0.466822 -0.443838 -0.216837 1.000000 0.000000 0.000000 255 255 255 1.000000
-0.188584 0.456998 -0.102578 -0.000000 -1.000000 0.000000 255 255 255 1.000000
-0.116244 -0.530563 -0.223019 0.000000 0.000000 1.000000 255 255 255 1.000000
-0.220351 0.456998 0.117323 0.000000 1.000000 0.000000 255 255 255 1.000000
-0.451497 0.242206 -0.042207 -1.000000 -0.000000 0.000000 255 255 255 1.000000
-0.237631 -0.543094 0.055614 -0.000000 -1.000000 0.000000 255 255 255 1.000000
0.157546 0.799942 -0.243451 0.000000 0.000000 1.000000 255 255 255 1.000000
0.498610 0.562119 0.134285 1.000000 0.000000 0.000000 255 255 255 1.000000
0.282990 0.068320 -0.042092 0.000000 1.000000 0.000000 255 255 255 1.000000
-0.367007 0.526703 -0.228127 0.000000 0.000000 1.000000 255 255 255 1.000000
-0.411403 0.088752 0.028454 0.000000 1.000000 0.000000 255 255 255 1.000000
-0.293881 0.820710 0.227771 0.000000 0.000000 -1.000000 255 255 255 1.000000
-0.093487 0.852062 0.066454 0.000000 -1.000000 0.000000 255 255 255 1.000000
-0.187298 0.446147 0.227771 0.000000 0.000000 -1.000000 255 255 255 1.000000
-0.075156 -0.846885 0.008544 -0.000000 1.000000 -0.000000 255 255 255 1.000000
0.490901 0.715117 -0.228127 0.000000 -0.000000 -1.000000 255 255 255 1.000000
0.423280 0.456998 -0.083286 0.000000 1.000000 0.000000 255 255 255 1.000000
-0.466822 0.351830 0.177372 1.000000 0.000000 0.000000 255 255 255 1.000000
0.212470 0.542055 -0.223019 0.000000 -0.000000 -1.000000 255 255 255 1.000000
0.513934 0.273177 -0.132002 -1.000000 -0.000000 0.000000 255 255 255 1.000000
0.025216 0.477431 0.036239 -0.000000 -1.000000 0.000000 255 255 255 1.000000
0.122061 -0.826453 -0.110957 0.000000 -1.000000 0.000000 255 255 255 1.000000
-0.338718 0.356049 -0.223019 0.000000 -0.000000 -1.000000 255 255 255 1.000000
0.486165 0.416449 0.243095 0.000000 0.000000 1.000000 241 184 116 1.000000
0.129545 -0.221424 0.121900 0.000000 1.000000 0.000000 255 255 255 1.000000
-0.296950 0.088752 0.001672 -0.000000 -1.000000 0.000000 255 255 255 1.000000
-0.451497 0.001688 0.164734 1.000000 0.000000 0.000000 255 255 255 1.000000
-0.298360 -0.826453 0.128059 0.000000 -1.000000 0.000000 255 255 255 1.000000
0.163435 -0.826453 0.018821 0.000000 -1.000000 0.000000 255 255 255 1.000000
0.291021 -0.172001 0.243095 0.000000 0.000000 -1.000000 250 197 127 1.000000
0.165514 0.831629 0.105101 0.000000 -1.000000 0.000000 255 255 255 1.000000
-0.289221 0.831629 -0.203012 0.000000 -1.000000 0.000000 255 255 255 1.000000
0.181117 -0.241857 0.012679 -0.000000 -1.000000 0.000000 255 255 255 1.000000
-0.274365 -0.522661 -0.083505 -0.000000 -1.000000 0.000000 255 255 255 1.000000
-0.028422 -0.577953 0.243095 0.000000 0.000000 1.000000 249 194 125 1.000000
0.066268 -0.522661 0.103906 -0.000000 -1.000000 0.000000 255 255 255 1.000000
-0.054965 0.852062 -0.127888 0.000000 -1.000000 0.000000 255 255 255 1.000000
0.380285 0.322442 0.243095 0.000000 0.000000 1.000000 251 192 125 1.000000
0.298234 -0.750114 -0.223019 0.000000 0.000000 1.000000 255 255 255 1.000000
0.173951 0.477431 0.212806 0.000000 1.000000 0.000000 255 255 255 1.000000
-0.466822 -0.313438 0.153016 -1.000000 -0.000000 0.000000 245 186 118 1.000000
0.055428 -0.826453 -0.183375 0.000000 -1.000000 0.000000 255 255 255 1.000000
-0.110280 0.477431 0.097769 0.000000 1.000000 0.000000 255 255 255 1.000000
0.423574 -0.241857 0.057657 0.000000 1.000000 0.000000 255 255 255 1.000000
0.064352 -0.241857 0.034525 0.000000 1.000000 0.000000 255 255 255 1.000000
-0.098870 -0.698410 0.227771 0.000000 0.000000 1.000000 252 193 123 1.000000
0.513934 -0.235116 0.211930 -1.000000 -0.000000 0.000000 255 255 255 1.000000
0.438828 -0.737178 -0.223019 0.000000 0.000000 1.000000 255 255 255 1.000000
-0.327842 0.831629 -0.142570 -0.000000 1.000000 -0.000000 255 255 255 1.000000
0.310380 0.255411 0.227771 0.000000 0.000000 1.000000 254 194 125 1.000000
0.492951 0.083162 0.243095 0.000000 0.000000 1.000000 245 181 108 1.000000
0.498610 -0.391139 -0.020917 1.000000 0.000000 0.000000 255 255 255 1.000000
-0.183185 -0.543094 -0.125496 -0.000000 -1.000000 0.000000 255 255 255 1.000000
0.039692 0.462885 0.243095 0.000000 0.000000 1.000000 253 198 130 1.000000
-0.451497 0.338387 -0.181987 -1.000000 -0.000000 0.000000 255 255 255 1.000000
-0.045144 -0.139640 0.227771 0.000000 0.000000 -1.000000 255 255 255 1.000000
-0.451497 -0.572176 -0.002032 -1.000000 -0.000000 0.000000 255 255 255 1.000000
-0.466822 0.745394 0.021570 1.000000 0.000000 0.000000 255 255 255 1.000000
-0.451497 -0.487671 0.148443 -1.000000 -0.000000 0.000000 255 255 255 1.000000
-0.274985 -0.152296 -0.228127 0.000000 0.000000 1.000000 255 255 255 1.000000
-0.451497 -0.281346 -0.124693 1.000000 0.000000 0.000000 255 255 255 1.000000
-0.353595 0.615534 0.227771 0.000000 0.000000 1.000000 248 197 126 1.000000
-0.466822 -0.699586 -0.093757 1.000000 0.000000 0.000000 255 255 255 1.000000
-0.140855 0.494772 -0.228127 0.000000 0.000000 1.000000 255 255 255 1.000000
-0.466822 0.461950 0.091078 -1.000000 -0.000000 0.000000 251 192 119 1.000000
0.087255 0.544358 -0.223019 0.000000 -0.000000 -1.000000 255 255 255 1.000000
-0.450869 0.852062 -0.019894 0.000000 -1.000000 0.000000 255 255 255 1.000000
-0.152610 -0.054630 -0.223019 0.000000 0.000000 1.000000 255 255 255 1.000000
0.513934 -0.413065 -0.128667 1.000000 0.000000 0.000000 246 195 124 1.000000
0.411841 0.456998 -0.186716 -0.000000 -1.000000 0.000000 255 255 255 1.000000
-0.466822 -0.688135 0.058124 1.000000 0.000000 0.000000 255 255 255 1.000000
0.302510 -0.331738 -0.223019 0.000000 0.000000 1.000000 255 255 255 1.000000
-0.187787 0.477431 0.096646 0.000000 1.000000 0.000000 255 255 255 1.000000
-0.006399 0.831629 -0.159752 0.000000 -1.000000 0.000000 255 255 255 1.000000
-0.243696 -0.637727 0.243095 0.000000 0.000000 -1.000000 244 189 120 1.000000
0.165096 0.711847 0.227771 0.000000 0.000000 1.000000 252 200 131 1.000000
0.513934 0.280790 -0.106021 -1.000000 -0.000000 0.000000 255 255 255 1.000000
-0.415808 0.068320 0.084814 0.000000 1.000000 0.000000 255 255 255 1.000000
0.485381 0.031746 -0.223019 0.000000 0.000000 1.000000 255 255 255 1.000000
-0.028548 -0.633328 -0.228127 0.000000 -0.000000 -1.000000 255 255 255 1.000000
-0.466822 -0.741014 -0.163394 -1.000000 -0.000000 0.000000 250 194 124 1.000000
0.290237 0.068320 -0.092221 -0.000000 -1.000000 0.000000 255 255 255 1.000000
-0.225144 -0.813815 -0.243451 0.000000 0.000000 1.000000 255 255 255 1.000000
-0.448193 -0.551384 0.227771 0.000000 0.000000 -1.000000 255 255 255 1.000000
0.479081 0.347010 -0.223019 0.000000 -0.000000 -1.000000 255 255 255 1.000000
-0.306624 -0.221424 0.048652 0.000000 1.000000 0.000000 255 255 255 1.000000
-0.466822 -0.221414 -0.210078 -1.000000 -0.000000 0.000000 246 190 119 1.000000
0.204859 0.477431 -0.007162 -0.000000 -1.000000 0.000000 255 255 255 1.000000
-0.466822 -0.622661 0.146837 1.000000 0.000000 0.000000 255 255 255 1.000000
0.074550 0.831629 0.211743 -0.000000 1.000000 -0.000000 255 255 255 1.000000
-0.028510 -0.352409 0.227771 0.000000 0.000000 -1.000000 255 255 255 1.000000
-0.440598 0.456998 0.190301 0.000000 1.000000 0.000000 255 255 255 1.000000
0.296262 -0.391829 -0.223019 0.000000 0.000000 1.000000 255 255 255 1.000000
0.498610 0.464485 0.078586 1.000000 0.000000 0.000000 255 255 255 1.000000
0.155639 0.060290 0.243095 0.000000 0.000000 1.000000 247 192 123 1.000000
-0.451497 0.425502 -0.161471 -1.000000 -0.000000 0.000000 255 255 255 1.000000
-0.182445 -0.522661 0.135337 0.000000 1.000000 0.000000 255 255 255 1.000000
0.068772 0.520387 -0.228127 0.000000 0.000000 1.000000 255 255 255 1.000000
0.003919 -0.826453 -0.018141 0.000000 -1.000000 0.000000 255 255 255 1.000000
0.245070 0.344409 -0.228127 0.000000 0.000000 1.000000 255 255 255 1.000000
0.513934 0.756267 0.202779 1.000000 0.000000 0.000000 249 194 125 1.000000
-0.187740 0.852062 0.104816 -0.000000 1.000000 -0.000000 255 255 255 1.000000
0.038056 0.831629 0.140077 -0.000000 1.000000 -0.000000 255 255 255 1.000000
0.332507 0.066866 -0.228127 0.000000 -0.000000 -1.000000 255 255 255 1.000000
-0.136289 -0.007857 -0.243451 0.000000 0.000000 1.000000 255 255 255 1.000000
-0.158205 0.463122 -0.228127 0.000000 0.000000 1.000000 255 255 255 1.000000
-0.380516 -0.241857 -0.038049 -0.000000 -1.000000 0.000000 255 255 255 1.000000
0.334473 0.456998 -0.018506 0.000000 1.000000 0.000000 255 255 255 1.000000
-0.103191 -0.023302 0.243095 0.000000 0.000000 -1.000000 249 186 120 1.000000
0.122092 0.469553 0.243095 0.000000 0.000000 -1.000000 251 197 127 1.000000
0.417428 0.852062 0.092886 -0.000000 1.000000 -0.000000 255 255 255 1.000000
-0.413943 -0.826453 -0.037990 0.000000 -1.000000 0.000000 255 255 255 1.000000
0.342032 0.477431 -0.109896 0.000000 1.000000 0.000000 255 255 255 1.000000
-0.215127 0.852062 0.157663 0.000000 -1.000000 0.000000 255 255 255 1.000000
-0.347320 0.456998 -0.007376 0.000000 1.000000 0.000000 255 255 255 1.000000
-0.209264 0.437022 0.243095 0.000000 0.000000 -1.000000 247 195 123 1.000000
